ply
format ascii 1.0
element vertex 986
property float x
property float y
property float z
property uchar red
property uchar green
property uchar blue
end_header
0.599877 0.458262 4.61814 0 255 0
0.657347 0.645051 4.54138 0 255 0
0.973912 0.642231 4.50244 0 255 0
1.24213 0.627009 4.46383 0 255 0
1.57864 0.612436 4.48304 0 255 0
1.93569 0.589689 4.52972 0 255 0
2.28219 0.563271 4.62894 0 255 0
2.47834 0.681273 4.77038 0 255 0
2.58386 1.38504 5.23166 0 255 0
2.91752 0.806188 5.4142 0 255 0
0.300022 2.90914 5.46466 0 255 0
2.48425 0.899421 4.92316 0 255 0
2.15907 0.84667 4.76699 0 255 0
1.88291 0.763631 4.56884 0 255 0
1.44841 0.894161 4.4232 0 255 0
0.330703 -0.656841 8.0267 184 184 140
0.353953 -0.594353 8.0048 154 158 122
-0.0233468 -0.350193 7.23409 182 178 142
0.32365 -0.555242 7.95586 166 164 130
0.0276108 -0.301247 7.24404 127 124 102
1.93699 -0.337536 7.38843 117 116 78
1.92566 -0.32864 7.37662 198 197 160
0.0256758 -0.306902 7.32238 114 114 82
1.94056 -0.295225 7.36615 125 124 97
1.8588 -0.294927 7.38975 132 130 90
1.87703 -0.298108 7.40623 189 186 144
0.551221 -0.407699 7.91641 181 184 143
1.79046 -0.264304 7.42216 184 182 146
0.101067 -0.222028 7.26655 144 146 124
0.507355 -0.352062 7.81635 168 172 137
0.117266 -0.205654 7.3008 162 160 136
1.72369 -0.234495 7.42044 220 218 178
0.624494 -0.0958789 6.86866 194 201 154
1.71495 -0.231189 7.41867 157 155 115
0.613837 -0.327279 7.87442 182 187 144
0.131119 -0.161005 7.2422 158 158 135
0.668976 -0.183031 7.59502 187 195 152
0.560784 -0.160964 7.72778 166 170 126
0.217702 -0.061906 7.2887 160 158 132
0.566169 -0.132184 7.67742 132 136 94
0.649271 -0.0863105 7.71393 158 168 128
0.367668 -0.027935 7.41589 163 162 140
0.289825 0.00126968 7.28187 157 155 132
0.420784 -0.0150473 7.49337 184 186 146
0.702087 -0.0385353 7.65498 179 184 150
0.350803 0.0571421 7.31322 170 168 142
0.471308 0.0273031 7.53116 188 188 150
0.402777 0.108893 7.37712 178 174 152
0.47236 0.0990283 7.46266 165 164 143
0.782222 0.145401 7.15248 176 178 128
1.0864 0.074565 7.83628 142 149 110
1.65309 0.0856303 7.87646 223 220 180
0.443875 0.155205 7.39228 179 176 154
0.801737 0.171771 7.24439 171 172 125
0.556915 0.149082 7.49694 150 151 122
0.581726 0.16854 7.51879 158 158 128
0.824681 0.193337 7.37495 156 156 110
0.877712 0.169242 7.59163 236 236 192
0.0223673 0.183308 7.73708 144 144 96
0.601137 0.202978 7.52838 165 164 135
0.085838 0.188319 7.72888 181 182 134
0.61041 0.213635 7.51379 159 158 128
1.09717 0.185367 7.91797 218 230 192
0.162278 0.205561 7.72648 150 148 106
1.52224 0.207163 7.90142 204 210 176
0.216512 0.213416 7.82183 200 202 160
0.238451 0.22473 7.72735 155 157 112
1.59099 0.218902 7.86782 228 226 190
1.6236 0.226107 7.89132 179 168 132
0.762717 0.249168 7.62454 229 231 195
1.60269 0.233699 7.89529 115 94 58
0.76447 0.257361 7.57601 200 202 161
1.62021 0.251691 7.8489 225 215 180
1.58666 0.262474 7.81375 126 94 63
-0.179146 0.268115 7.81666 166 142 92
-0.158617 0.269721 7.7864 168 143 96
1.60725 0.258895 7.99827 192 178 146
1.47016 0.246624 8.25233 202 201 166
0.947589 0.308729 7.48465 98 101 62
0.251829 0.311095 7.6763 93 80 53
0.22414 0.324017 7.68871 175 158 112
0.279751 0.32225 7.61285 146 127 98
1.6137 0.339146 7.70484 168 134 104
1.61134 0.36069 7.66745 167 131 106
0.628497 0.335408 8.42992 84 62 39
0.342228 0.37538 7.96196 114 98 65
0.747695 0.384175 7.68413 167 170 148
0.750488 0.399528 7.48267 155 158 134
0.334599 0.433372 8.09406 221 202 167
0.993502 0.446899 7.58299 128 130 114
0.297361 0.457922 7.55358 176 126 100
0.410312 0.461662 8.223 223 215 184
0.841784 0.480841 7.80075 100 100 74
1.01318 0.478173 7.66323 136 126 117
1.17074 0.484328 7.95668 84 69 51
0.373556 0.494876 8.08225 158 133 114
1.43891 0.502687 7.93144 219 200 188
1.5057 0.511111 8.0698 102 70 36
0.372476 0.533972 7.39748 142 98 71
1.47544 0.553589 7.97595 74 41 18
1.47648 0.582146 7.66158 127 81 52
1.4616 0.602973 7.69599 100 72 50
1.46769 0.643063 7.64179 138 98 76
1.26949 0.660175 7.49511 61 50 33
1.27151 0.662045 7.41489 55 46 32
1.49078 0.682352 7.64631 162 110 90
1.38462 0.691773 7.55486 152 132 112
1.49448 0.699114 7.64203 188 147 133
1.4334 0.710776 7.60805 246 238 229
0.516378 0.72683 7.42891 88 64 47
0.538496 0.730294 7.46517 164 152 153
0.546746 0.739596 7.48067 148 138 139
0.866947 0.680293 6.89568 134 142 104
0.534384 0.744788 7.46173 75 54 40
0.868205 0.680269 6.89549 138 144 110
0.5467 0.75475 7.47131 76 58 54
1.03086 0.748655 7.18951 68 36 22
0.856761 0.709306 6.82098 132 138 104
1.04416 0.761113 7.22551 180 142 133
1.23056 0.780472 7.35893 148 126 112
1.26954 0.775216 7.25011 112 104 84
0.939035 0.750376 6.90151 175 163 148
1.24347 0.827032 7.35485 162 128 116
0.410556 0.889977 7.76492 190 150 132
0.4262 0.893853 7.7696 92 48 28
0.503445 0.857255 7.49082 158 120 105
1.48742 0.814662 7.20533 200 198 176
0.509475 0.844669 7.3515 156 118 103
0.518083 0.86302 7.48389 85 47 31
0.527176 0.865187 7.50288 144 104 88
0.538226 0.864657 7.47395 81 41 24
0.3942 0.933915 7.93936 188 152 136
1.35444 0.827608 7.16692 79 78 56
0.32624 1.06046 8.53972 191 169 142
0.735467 0.879759 7.34147 108 69 55
1.38817 0.939616 7.69284 102 70 64
0.744168 0.892788 7.34986 169 147 142
1.22082 0.905541 7.43855 88 56 52
1.23194 0.909351 7.44391 169 142 140
1.3614 0.939583 7.63084 91 60 56
0.735707 0.897296 7.35507 66 33 26
0.755755 0.901683 7.36363 67 35 28
0.86768 0.801542 6.72835 131 139 115
0.376217 1.00123 7.90973 182 155 128
0.406804 0.997454 7.87918 80 40 20
1.53205 0.873582 7.14038 212 208 188
0.398346 1.04792 7.97311 211 190 168
0.751698 0.947694 7.38852 152 135 130
1.45855 0.900943 7.12045 128 126 108
0.554352 1.0222 7.80336 58 22 9
0.763439 0.958198 7.39732 60 28 21
1.24474 0.994615 7.56659 82 50 46
0.558936 1.05591 7.68187 130 91 76
1.18746 1.0317 7.5404 144 110 108
0.822967 0.858787 6.65011 176 150 136
0.772153 1.02101 7.45741 49 20 18
1.33716 1.08841 7.76293 108 75 73
1.22999 1.05332 7.57367 63 35 30
0.681544 1.04045 7.49615 170 129 115
0.764868 1.07163 7.46636 156 132 130
0.774995 1.10152 7.54908 120 90 84
0.778958 1.0984 7.50881 48 21 16
1.20045 1.13405 7.63922 87 55 50
1.11624 1.11662 7.5372 91 56 54
1.20239 1.18344 7.66618 173 150 148
1.19965 1.20295 7.64089 80 51 51
1.18636 1.22239 7.68827 73 38 38
1.56491 1.11691 7.21951 152 128 118
0.787828 1.2303 7.65307 144 120 118
1.5884 1.1361 7.23713 228 208 196
1.61235 1.10233 7.10085 230 210 199
1.63015 1.10344 7.10467 142 96 72
0.579072 1.34789 7.988 66 24 8
0.599601 1.37921 8.04089 62 28 18
1.19414 1.34284 7.85477 178 152 149
0.623339 1.46777 8.0467 109 66 50
0.634634 1.4311 7.89863 153 108 98
0.639154 1.49737 8.0741 106 68 59
0.820028 1.44904 7.86342 162 140 138
2.02718 -0.39871 7.32989 150 148 126
0.350746 -0.601095 8.02188 148 152 117
0.325111 -0.553149 7.94734 152 150 117
0.0257339 -0.299494 7.24171 132 130 107
0.0438205 -0.281501 7.23923 114 114 82
0.449297 -0.448155 7.89406 174 178 146
0.550798 -0.39523 7.86752 198 200 160
0.130302 -0.239301 7.32758 142 140 102
0.495894 -0.377368 7.86728 160 166 131
0.502733 -0.364444 7.85001 176 178 144
0.161219 -0.201627 7.30935 122 121 87
0.0966963 -0.16211 7.28568 114 112 77
0.156891 -0.117371 7.27592 150 146 118
0.613169 -0.19603 7.76554 160 170 128
0.564775 -0.140708 7.66038 170 174 131
0.566136 -0.145718 7.74359 142 146 104
0.361963 -0.0615897 7.45949 175 176 138
0.597983 -0.0697341 7.61835 154 156 112
0.285016 -0.00622738 7.31235 160 158 134
0.613062 -0.0500024 7.63164 132 136 90
0.406491 0.0431733 7.44123 164 162 140
0.872849 -0.0641073 8.58747 174 174 128
0.475003 0.103759 7.43573 162 161 140
0.784047 0.137909 7.19173 181 182 132
1.08286 0.0760142 7.81594 132 140 102
0.543445 0.158267 7.48599 154 154 132
1.08312 0.132945 7.8192 138 145 111
0.5815 0.168801 7.51619 142 142 113
0.623657 0.173323 7.56341 164 164 130
0.617067 0.195857 7.57133 132 132 101
0.0226862 0.178928 7.80017 189 188 142
0.600653 0.204106 7.52726 158 158 128
0.6071 0.202029 7.55603 166 164 136
1.59575 0.196983 7.91818 129 126 86
1.62963 0.255156 7.90198 196 168 138
1.44299 0.253845 8.0604 152 138 103
1.60348 0.275622 7.77662 130 100 64
1.62466 0.272559 8.01504 131 114 84
0.947296 0.307821 7.48486 106 108 69
1.62559 0.353378 7.71715 165 128 104
0.640386 0.354444 8.33676 128 106 83
0.951425 0.386911 7.32843 89 93 70
0.746897 0.395601 7.50782 161 164 140
0.347682 0.417336 8.04194 116 77 46
0.335727 0.450768 7.93056 174 151 111
1.14339 0.455392 8.19046 94 68 56
1.5395 0.453683 7.62818 212 178 160
1.46637 0.476784 8.16716 171 152 118
0.361444 0.480347 8.08968 188 159 135
0.838222 0.476943 7.79441 92 94 66
1.37258 0.480512 7.91727 68 54 33
1.47399 0.497513 8.07762 202 185 172
1.47695 0.514429 7.94421 101 70 38
1.48606 0.531387 7.87623 136 103 66
1.43421 0.535468 7.84342 81 48 24
1.49908 0.575205 7.89062 120 89 66
1.44446 0.592653 7.64447 104 80 60
0.514031 0.617777 6.78483 139 141 121
1.42083 0.680388 7.6218 174 135 110
1.38835 0.683738 7.58393 73 46 27
1.42045 0.693528 7.56766 102 73 55
1.32861 0.685438 7.42289 142 134 112
0.818873 0.645707 6.86687 142 136 110
1.48276 0.700779 7.60321 185 148 138
1.48512 0.70973 7.58221 218 177 160
1.4119 0.711307 7.55633 126 101 84
0.8242 0.657938 6.91521 74 69 42
1.44257 0.713769 7.51311 183 154 125
0.877269 0.675429 6.83368 128 140 102
0.520898 0.738227 7.46164 203 189 187
0.535374 0.740753 7.45573 90 79 78
1.01872 0.723035 7.2847 52 37 25
0.860774 0.68435 6.8376 140 146 112
1.05978 0.740112 7.32777 84 48 30
1.40245 0.74192 7.30593 212 205 188
0.563782 0.76085 7.46845 92 62 53
0.428654 0.682449 6.65856 132 137 124
0.462681 0.766688 7.41612 140 94 60
0.500916 0.772561 7.37862 117 75 52
0.85355 0.708565 6.7918 129 135 102
1.04672 0.762609 7.22179 180 142 133
1.24354 0.789073 7.36215 78 60 40
1.04376 0.774861 7.20936 180 142 136
1.03359 0.807049 7.35747 119 92 85
0.738428 0.805563 7.32958 83 42 27
0.761445 0.806414 7.33321 96 68 62
0.427934 0.882995 7.70141 94 51 32
1.48579 0.816891 7.18331 146 143 118
0.541298 0.865239 7.47212 91 50 34
1.40876 0.905227 7.63662 156 134 128
0.631236 0.864624 7.36156 194 152 134
1.30136 0.887357 7.51353 124 88 82
0.637953 0.863075 7.34013 194 154 138
1.52532 0.863554 7.13695 181 176 152
1.22811 0.925225 7.48623 55 30 23
0.403786 1.00681 7.94201 78 38 18
0.409138 1.00815 7.85324 80 42 22
0.844288 0.92834 7.3273 194 154 148
0.766006 0.964787 7.49353 72 41 34
1.56168 0.913722 7.11941 170 165 141
0.436646 1.10496 8.03368 187 162 153
1.19362 1.03604 7.57232 154 120 118
1.25483 1.03623 7.59017 86 52 44
0.818091 1.00086 7.39206 128 90 87
1.36326 1.08027 7.79471 81 54 48
1.22741 1.05888 7.61638 168 140 138
0.683647 1.04109 7.50959 158 118 104
0.758448 1.08629 7.53844 70 34 28
0.777683 1.09316 7.49023 70 42 38
1.21468 1.12684 7.64129 166 130 126
1.25487 1.20741 7.78012 116 74 70
0.46075 1.30268 8.14703 114 90 66
1.20388 1.21632 7.72096 164 142 143
1.22347 1.22905 7.77068 87 60 60
0.796078 1.20824 7.6147 86 52 48
0.507533 1.35534 8.16852 146 114 99
0.577313 1.34117 7.9664 82 37 19
0.622487 1.33678 7.89014 96 50 39
0.621682 1.44361 7.96822 110 64 50
0.636406 1.47457 8.04668 160 122 112
0.654478 1.45071 7.92477 80 37 25
0.830076 1.48887 7.97544 152 134 134
0.358873 -0.435217 7.55836 162 160 125
0.0124785 -0.298793 7.24587 183 180 164
1.93244 -0.323179 7.32602 102 100 63
0.0407362 -0.289376 7.27092 116 115 86
1.87486 -0.299638 7.39952 216 214 172
1.85498 -0.291026 7.38374 151 149 108
0.096672 -0.226439 7.27307 154 154 133
0.50485 -0.338203 7.74129 174 176 142
0.146505 -0.205014 7.31345 173 170 148
0.15749 -0.200656 7.30783 133 131 98
0.182528 -0.141188 7.24335 145 144 122
0.654021 -0.277865 7.85793 223 225 184
0.18274 -0.147857 7.30821 148 148 125
0.159041 -0.115393 7.26746 149 146 118
0.616263 -0.198162 7.77963 161 170 128
0.561193 -0.158631 7.72145 164 168 122
0.64966 -0.122022 7.74306 152 163 120
0.597701 -0.0722003 7.61204 140 143 100
0.610869 -0.071485 7.66755 171 174 130
0.402411 0.111006 7.35714 178 176 152
0.471999 0.0949168 7.48559 154 155 134
0.702057 0.102894 7.55866 172 174 130
1.08621 0.130153 7.84226 131 138 104
0.582088 0.170328 7.49379 150 150 120
0.882403 0.15598 7.66216 232 236 192
0.623263 0.174815 7.53335 166 166 133
0.822482 0.201877 7.32723 176 176 130
0.0306609 0.187194 7.70761 174 174 124
0.500221 0.215642 7.4077 172 171 146
0.602641 0.206291 7.51394 165 164 135
1.59446 0.2039 7.90095 128 125 85
0.635345 0.229304 7.53388 164 164 134
0.770996 0.233954 7.77796 229 232 194
1.6233 0.248593 7.85353 227 220 185
1.62134 0.256561 7.87716 192 162 132
1.60279 0.275511 7.77064 131 102 65
1.54122 0.287046 7.84157 146 148 113
1.63011 0.286961 7.75768 199 181 150
1.57631 0.298323 7.84012 165 153 122
0.270595 0.317719 7.67919 148 127 98
1.37206 0.328397 7.9998 196 195 160
0.307539 0.3515 7.56969 180 153 127
0.53264 0.338178 8.29733 214 214 174
0.636406 0.365281 8.22878 128 104 82
0.374895 0.468053 8.01952 98 58 33
0.997485 0.483398 7.55215 153 150 143
1.45764 0.546423 7.89769 80 47 24
0.374489 0.532769 7.36561 150 105 80
1.47552 0.574362 7.80283 110 76 50
1.43238 0.596699 7.7166 92 65 47
1.44538 0.594151 7.65006 99 74 54
1.43595 0.630357 7.69676 80 50 24
1.43967 0.65157 7.64535 204 160 139
1.26503 0.659074 7.48098 36 23 8
1.27814 0.658945 7.48139 71 58 45
1.29081 0.667268 7.48116 36 25 12
1.41142 0.680802 7.67733 73 41 22
1.42631 0.692384 7.58078 108 76 56
0.820476 0.646409 6.87911 144 141 112
0.529476 0.729207 7.38928 194 184 184
0.507133 0.739646 7.43328 129 102 82
0.86705 0.683733 6.89082 136 142 107
1.39301 0.737845 7.27508 228 217 204
0.467853 0.767475 7.40542 135 88 56
0.826032 0.730575 6.93891 42 26 14
1.02888 0.750905 7.18897 38 15 6
1.22533 0.782479 7.39823 45 30 14
1.07303 0.77098 7.22796 148 116 108
1.23407 0.786342 7.37306 167 145 131
1.44115 0.774539 7.25587 212 210 194
1.04454 0.774399 7.20234 180 142 136
1.02709 0.803729 7.3039 130 104 97
1.24509 0.825575 7.35555 172 136 126
0.371109 0.905901 7.91382 204 190 166
1.37274 0.831154 7.1948 112 112 84
0.733635 0.880977 7.35223 114 70 54
1.2289 0.901241 7.42948 163 134 133
0.388762 1.00584 8.02662 182 144 120
0.404175 1.00766 7.94836 78 38 18
0.996947 0.891331 7.23877 147 110 102
1.19109 0.926807 7.45242 76 40 36
0.820362 0.896136 7.08208 172 130 126
1.46236 0.901126 7.1312 117 116 96
0.564472 0.985644 7.56396 68 30 16
1.2312 0.974717 7.49057 118 83 80
0.42882 1.05598 7.91367 84 46 28
0.44104 1.06928 7.88781 186 161 148
0.428732 1.13212 8.11198 100 73 56
1.17952 1.02576 7.49388 188 155 154
1.35344 1.117 7.83821 87 56 52
0.758167 1.08929 7.55694 70 34 28
0.457163 1.21966 8.07058 200 182 156
0.482975 1.23944 8.06941 86 42 24
0.767452 1.15717 7.57162 58 20 14
0.791278 1.15765 7.5542 90 48 38
1.20405 1.18566 7.67601 186 164 164
1.20705 1.21853 7.73539 164 142 143
1.22402 1.22634 7.76427 82 53 53
1.57669 1.1267 7.20389 228 211 198
1.5792 1.12749 7.19148 230 221 214
0.593197 1.35306 7.96553 56 20 7
1.19 1.32999 7.82582 170 144 140
0.927332 1.00679 6.56159 118 78 74
1.22803 1.45915 8.04182 113 70 65
0.620863 1.4402 7.96141 110 64 50
0.635536 1.42712 7.88518 153 108 98
0.272911 -0.650483 8.09305 163 162 136
0.00581051 -0.302612 7.2466 179 175 158
0.0215335 -0.300787 7.25397 156 154 130
0.1301 -0.238557 7.32708 144 142 104
0.15833 -0.202462 7.3191 121 120 86
0.613584 -0.314481 7.82154 202 206 163
0.197063 -0.183317 7.35744 214 212 174
0.173684 -0.153681 7.29161 137 136 114
0.163277 -0.110149 7.24303 149 146 118
0.993739 -0.137851 7.61621 150 154 114
0.362498 -0.0604697 7.45596 198 199 159
0.67318 -0.0728784 7.647 168 175 137
0.951583 -0.0602363 7.65619 96 104 60
0.477799 0.104375 7.46625 166 164 144
0.812865 0.124987 7.49556 182 182 132
0.452523 0.165453 7.35551 179 177 155
1.08621 0.130153 7.84226 131 138 104
0.500463 0.21473 7.39713 168 166 140
1.61026 0.234918 7.84122 184 176 140
0.760146 0.250665 7.58933 231 234 194
0.317425 0.252965 7.73501 191 194 150
1.62294 0.255149 8.04629 150 136 104
1.61367 0.274901 7.80792 126 96 59
1.60743 0.272025 7.95114 116 95 66
1.63793 0.283121 7.7838 204 190 158
1.58083 0.295801 7.85961 202 193 160
0.251872 0.308127 7.6846 89 76 50
0.221732 0.323303 7.69766 207 200 156
1.35277 0.335778 7.91368 196 195 160
0.743446 0.394176 7.48808 158 161 138
0.368071 0.465539 8.16972 100 58 33
1.47591 0.528294 7.84017 138 104 64
1.46195 0.562422 7.86666 142 112 84
1.42686 0.566728 7.62004 208 196 186
0.640769 0.570201 7.04094 134 134 116
1.40457 0.607011 7.61191 84 54 35
1.48605 0.675657 7.6404 182 125 98
1.38855 0.69067 7.5474 150 127 107
1.42824 0.716681 7.52411 132 104 70
1.01666 0.725143 7.29096 50 36 24
0.865876 0.684693 6.89306 132 139 104
0.854397 0.707434 6.78974 130 136 103
1.22839 0.784483 7.34595 180 160 145
1.27669 0.778824 7.28382 110 103 81
1.43808 0.773238 7.24136 230 227 212
1.18156 0.79761 7.31193 190 148 126
1.22546 0.798903 7.37213 102 72 51
1.05225 0.791936 7.24549 142 103 94
1.02891 0.810844 7.316 126 104 98
1.02645 0.808709 7.20607 78 40 29
0.406846 0.897486 7.81165 174 136 117
1.40011 0.878639 7.66986 119 86 80
0.516401 0.877345 7.59152 96 58 42
1.38938 0.882244 7.55401 150 124 118
0.631309 0.861306 7.3394 194 152 134
1.21832 0.867242 7.40123 72 38 30
1.17569 0.86805 7.36027 84 50 40
0.731976 0.881815 7.35717 114 70 53
0.390588 1.00454 7.97898 196 159 134
0.376518 1.00308 7.93839 166 136 108
1.00235 0.899062 7.2745 136 98 90
1.05034 0.923782 7.36663 58 31 28
1.05053 0.912578 7.30223 68 38 36
0.845409 0.92771 7.34204 164 122 116
1.46797 0.905188 7.15377 120 118 100
0.432404 1.08056 7.92109 202 189 168
0.438691 1.08593 7.94812 162 144 131
0.682271 1.00537 7.46725 82 41 29
1.35626 1.05996 7.7229 177 152 146
1.17607 1.02264 7.47976 173 140 138
1.22175 1.08046 7.66076 86 55 52
0.436669 1.16091 7.96826 120 88 66
0.458722 1.21447 8.02175 199 182 155
1.11049 1.11226 7.51768 98 62 61
0.479984 1.25652 8.15699 82 40 22
1.25553 1.21486 7.79979 109 70 63
0.574114 1.22217 7.80973 76 34 18
0.510689 1.33596 8.08207 152 118 105
1.28911 1.34061 7.984 116 72 69
0.594191 1.35483 7.98823 56 14 2
1.21475 1.34078 7.87527 91 52 50
1.19397 1.36524 7.92216 93 58 54
1.07083 1.24466 7.40265 136 88 86
0.631747 1.44928 7.96987 135 91 79
-0.0498053 -0.319594 7.18169 106 104 84
0.0476444 -0.278546 7.24188 108 108 78
0.0353756 -0.2312 7.24428 130 128 102
0.0628311 -0.223236 7.22427 170 164 143
0.143762 -0.220327 7.31954 204 202 164
0.198196 -0.180116 7.34911 176 175 142
0.175951 -0.153573 7.31401 154 153 129
0.666112 -0.24587 7.83547 150 156 116
0.997942 -0.152805 7.67305 105 110 70
0.417298 -0.0097375 7.47106 170 172 138
0.401025 0.109825 7.34525 169 165 142
0.815372 0.109911 7.59261 168 168 118
0.443972 0.153247 7.41855 179 176 154
0.871811 0.155834 7.56863 232 238 196
1.51738 0.20651 7.90466 219 227 190
0.237167 0.22681 7.71861 170 170 128
1.61288 0.232366 7.87088 174 156 120
1.58509 0.239763 7.91698 90 79 36
1.60238 0.276591 7.77127 135 106 70
0.944485 0.305731 7.45183 125 127 88
1.56386 0.280377 7.94044 174 178 141
0.225104 0.301378 7.70947 218 216 176
0.950776 0.381571 7.32091 108 112 88
0.918527 0.406052 7.00128 106 110 88
1.46633 0.498484 8.07503 164 146 126
0.412983 0.531662 7.18696 145 118 90
0.419637 0.572215 7.24568 110 88 62
1.42961 0.606416 7.7246 92 62 42
1.27204 0.660744 7.47406 72 62 44
0.834166 0.644482 7.1032 76 70 46
1.32448 0.686544 7.41678 121 117 92
1.02294 0.732161 7.34631 36 25 17
0.993773 0.769646 7.3169 32 22 16
1.28391 0.791231 7.40407 148 134 122
0.743084 0.790629 7.17571 132 113 100
0.771808 0.80174 7.30453 82 44 35
1.3042 0.809952 7.3585 209 192 192
1.0217 0.804307 7.17763 81 39 29
0.973523 0.80847 7.20379 116 100 86
1.24253 0.824706 7.34984 189 154 144
0.637457 0.833429 7.33839 133 89 69
0.731861 0.894257 7.40865 82 44 29
0.754537 0.872618 7.28866 156 110 94
1.2259 0.900443 7.43912 138 100 100
1.24662 0.907514 7.45108 76 50 47
1.37249 0.937692 7.66242 126 93 89
1.20679 0.913272 7.42774 82 49 42
0.445957 1.02696 7.88065 56 14 2
0.765738 0.952114 7.38711 61 29 22
1.20781 0.994949 7.5216 70 47 46
1.37429 1.07394 7.80345 156 130 124
0.77745 1.03056 7.4878 37 16 12
1.21688 1.035 7.49891 66 36 31
1.37729 1.11219 7.89659 92 62 60
1.11015 1.03534 7.45158 104 69 66
0.431998 1.16788 8.00563 146 121 98
1.09204 1.10146 7.42575 124 90 88
0.55477 1.23877 7.9392 86 36 18
1.19533 1.20674 7.74391 117 76 74
0.7988 1.21548 7.62343 79 46 41
0.653461 1.49234 8.06215 79 38 28
0.822183 1.45944 7.88329 144 120 117
0.446831 -0.42766 7.8149 177 176 147
0.0250281 -0.240783 7.26135 105 106 82
0.0432955 -0.234184 7.26769 174 164 142
0.139986 -0.218767 7.25442 163 160 124
0.105039 -0.151228 7.19555 130 125 92
0.650968 -0.287005 7.87624 221 225 183
0.702847 -0.0401867 7.68328 180 184 152
0.46607 0.0284003 7.53613 170 170 135
0.402891 0.116548 7.30983 168 164 140
0.544425 0.161368 7.48128 156 156 134
0.638617 0.237486 7.53952 146 144 116
0.750664 0.241359 7.58083 229 236 196
1.58023 0.246851 7.85931 100 80 46
1.6217 0.286465 7.75759 208 184 157
0.238344 0.307603 7.73645 144 123 90
1.56934 0.308464 7.79484 227 230 190
1.62813 0.314351 7.76058 218 200 176
0.219733 0.326464 7.69381 218 215 172
0.313346 0.367443 7.60103 98 75 52
1.11556 0.367505 7.60336 149 142 128
0.940437 0.385119 7.25046 140 144 118
0.349198 0.373564 7.94272 225 222 186
0.301351 0.407127 7.9284 214 204 167
1.05268 0.412888 8.12309 138 140 122
0.330378 0.439829 8.09445 198 180 142
1.34896 0.490527 7.82149 50 28 12
1.4316 0.51054 7.75932 108 74 42
1.41947 0.573995 7.59134 226 214 202
0.989676 0.568882 7.43056 86 82 64
0.451725 0.577303 6.96901 80 62 40
1.28345 0.664222 7.5169 98 90 72
1.43206 0.671916 7.6254 113 72 50
1.39599 0.674034 7.61078 110 80 62
1.36001 0.682897 7.62779 42 24 11
1.40337 0.741522 7.27985 214 206 189
1.17062 0.773428 7.38802 130 86 68
0.436085 0.707388 6.71245 212 208 192
1.06876 0.769004 7.21981 130 96 82
1.23405 0.788019 7.38685 98 76 58
1.26794 0.788825 7.33532 177 156 150
1.03936 0.771566 7.1718 124 86 74
1.05591 0.851277 7.64979 65 32 25
1.37786 0.873285 7.57263 136 108 100
1.38008 0.947367 7.63587 145 118 114
0.464168 0.994548 7.64901 56 18 4
0.746749 0.940336 7.37939 144 116 112
1.34628 1.01005 7.68717 118 82 78
1.02838 0.966033 7.29495 80 46 40
1.18942 1.13857 7.63944 102 66 60
1.30317 1.20856 7.84274 98 60 58
1.19207 1.18724 7.65204 128 104 104
0.784203 1.21923 7.62693 154 133 133
1.58413 1.12584 7.20029 223 216 213
1.29202 1.35752 8.03639 142 100 96
1.57263 1.11523 7.08405 122 88 67
1.56271 1.12953 7.15586 214 194 183
0.653115 1.4802 8.0173 80 40 28
0.812291 1.43872 7.79847 100 58 52
0.426251 -0.501178 8.05219 139 141 109
0.0255648 -0.237331 7.24431 105 106 84
0.136239 -0.229526 7.35642 172 170 136
0.174578 -0.207915 7.37741 184 184 139
0.0990809 -0.161529 7.23666 120 115 84
0.129754 -0.141088 7.24828 108 107 80
0.409792 -0.0142083 7.49194 150 151 121
0.33962 0.0484354 7.33639 146 144 119
-0.0634622 0.223688 7.70827 107 95 60
1.62385 0.199938 7.9748 169 172 136
0.981181 0.270354 7.657 70 78 48
1.65246 0.307549 7.83639 218 196 172
0.226173 0.324247 7.66901 201 194 150
0.297112 0.403945 7.96346 211 199 162
0.337557 0.444335 7.97913 179 160 120
0.305378 0.454654 7.99186 178 133 106
0.840675 0.469635 8.02005 91 94 68
1.47361 0.546542 7.98122 68 35 16
1.25469 0.659289 7.40727 70 59 42
1.32359 0.68416 7.40651 122 114 90
1.38266 0.691892 7.50019 180 155 135
1.45455 0.749513 7.61658 198 177 158
0.956632 0.729433 7.05093 30 23 15
1.09416 0.760269 7.27539 42 21 13
1.16068 0.771813 7.35826 130 84 67
0.460049 0.78396 7.37836 206 162 129
0.775738 0.863292 7.89355 117 92 80
1.31579 0.816071 7.44466 201 184 184
1.02318 0.836326 7.22994 225 194 190
0.636283 0.861438 7.37165 190 150 134
0.844871 0.934674 7.3848 129 85 80
0.873208 0.679734 5.86159 92 72 62
0.831198 1.02555 7.42005 39 15 5
1.35868 1.12514 7.79255 124 98 92
0.477693 1.24833 8.05999 96 56 37
1.19413 1.18543 7.66343 118 92 90
1.62899 1.1024 7.1012 183 135 104
0.601866 1.32086 7.8614 134 86 72
1.06752 -0.288382 7.73705 180 185 142
0.645741 -0.237273 7.66107 220 225 183
1.01946 0.0549144 7.49107 140 144 108
0.743309 0.235768 7.58705 224 236 194
1.58828 0.239725 7.94589 86 74 32
0.238199 0.304792 7.73333 156 140 110
1.60036 0.322221 7.87591 223 232 192
1.25983 0.305298 8.13066 206 209 178
1.48476 0.502099 7.98164 120 87 56
1.44289 0.546219 7.86078 74 42 20
1.50044 0.566424 7.73307 164 120 98
1.4341 0.581823 7.77885 112 80 56
1.3248 0.662789 7.4898 42 21 13
1.34641 0.683766 7.4915 117 104 83
1.39035 0.689302 7.52946 172 143 125
0.517489 0.733137 7.45703 112 94 77
1.04671 0.766392 7.22405 174 136 128
0.537064 0.880615 7.5645 74 37 21
0.808444 0.869194 6.9787 130 84 77
0.769275 0.935497 7.31826 80 43 34
0.79031 1.09236 7.49486 50 24 20
1.33726 1.22699 7.99028 120 82 80
0.46082 1.27856 8.05037 152 131 106
0.512091 1.45994 8.507 79 40 24
1.6306 1.10274 7.1201 194 149 118
0.815509 1.45472 7.89556 108 63 56
0.417023 0.0494447 7.41448 126 126 106
0.481756 0.109146 7.46212 138 136 116
0.330061 0.26066 7.68555 164 168 128
1.6029 0.278004 7.77742 108 76 42
0.444175 0.318632 7.73695 149 153 110
0.531344 0.353673 8.14371 173 164 124
0.309459 0.403018 7.89443 206 177 137
1.429 0.654398 7.61103 188 142 122
1.38862 0.687423 7.6072 50 26 12
1.49074 0.709224 7.59687 160 124 111
1.42769 0.720123 7.53076 86 62 34
1.27811 0.781359 7.31626 98 88 72
1.23746 0.790535 7.37649 159 139 123
0.864071 0.70072 6.33427 122 98 85
1.48693 0.816254 7.18335 128 125 104
0.762502 0.943763 7.38842 70 29 24
0.421618 1.04977 7.89859 138 111 92
0.413052 1.04964 7.87951 58 36 20
0.440222 1.08981 7.93904 160 136 126
0.749597 1.02855 7.44561 50 21 14
1.31369 1.18165 7.8065 98 62 57
0.275342 -0.0725632 7.3442 126 127 108
0.712164 0.213837 7.62386 180 186 142
-0.0649325 0.222166 7.70536 84 75 34
0.303456 0.404929 7.91916 196 172 132
1.43772 0.655719 7.70162 157 113 86
1.50124 0.707833 7.59266 162 121 102
1.38329 0.714382 7.54892 118 99 78
1.42961 0.713022 7.51061 112 84 50
1.06679 0.736452 7.25984 52 31 22
1.28131 0.790336 7.38047 142 124 115
0.756874 0.902516 7.37193 54 19 15
0.751575 0.94852 7.40526 138 112 106
0.762374 0.958663 7.40616 56 26 21
0.416414 1.06152 7.93807 131 102 84
1.2337 0.981142 7.54293 99 70 66
1.216 0.976842 7.50645 66 37 35
1.63524 1.10304 7.10485 130 92 74
0.599716 1.34771 7.93849 88 54 43
0.379816 0.28524 7.73145 154 156 114
0.340396 0.437707 7.99764 164 146 110
0.919471 0.752624 6.81612 133 134 113
0.411711 0.887582 7.74398 152 117 98
0.755679 0.940466 7.36757 148 122 116
0.765853 0.956614 7.40928 52 21 16
1.30117 1.29678 7.9048 109 64 58
0.584509 1.34164 7.96412 79 32 17
0.0423401 -0.229832 7.24605 111 111 85
1.52985 0.202569 7.95593 198 204 164
0.361784 0.278589 7.73376 188 192 150
1.42944 0.652402 7.61759 169 122 98
1.36733 0.687915 7.6145 32 17 8
1.39103 0.708643 7.50974 138 110 88
1.42202 0.711989 7.59409 150 128 111
1.05301 0.747509 7.01678 128 96 92
1.23844 0.820429 7.31623 170 136 126
0.66933 0.856897 7.33753 104 55 36
1.24323 0.897968 7.43582 72 47 45
0.748665 1.02611 7.47422 42 14 8
1.22078 1.12856 7.66019 105 76 72
0.496219 1.33722 8.07054 147 123 104
0.51338 1.34338 8.04233 66 33 22
1.30406 1.31316 7.94585 93 49 42
0.626289 1.32019 7.82061 102 50 35
0.602659 0.207682 7.48407 132 132 106
0.313062 0.250744 7.73869 193 197 151
1.41808 0.419988 7.91372 188 191 154
0.931533 0.5484 8.36116 140 141 125
1.43231 0.704282 7.60924 130 108 94
0.670617 0.857413 7.33481 100 50 33
1.21761 0.875283 7.43968 52 25 17
0.733007 0.95319 7.42613 56 22 13
0.570517 1.22804 7.87517 81 38 28
1.63134 1.10685 7.1044 114 72 50
1.94576 -0.348889 7.43309 195 196 152
1.41442 0.434329 7.84618 178 178 141
1.43771 0.591102 7.78259 90 66 48
1.38312 0.715789 7.52221 130 108 88
1.42786 0.717283 7.55347 89 65 44
1.04123 0.809995 7.27496 62 28 18
0.410829 1.0581 7.90032 70 48 32
1.34911 1.07942 7.74927 74 48 42
0.569994 1.23971 7.90716 88 50 37
0.0615478 -0.21891 7.20536 120 117 98
0.18926 -0.193054 7.37295 152 154 115
0.84606 0.26902 6.28605 106 112 74
1.16267 0.344246 7.62859 196 202 166
0.340658 0.370016 7.42329 79 58 36
1.39055 0.455413 7.81051 104 79 50
0.802684 0.604611 7.3526 39 38 24
1.4272 0.710708 7.53001 108 76 46
1.06984 0.76631 7.22718 104 68 54
0.819145 0.763656 6.83751 132 97 86
0.670069 0.862158 7.35051 102 53 37
0.772271 0.951734 7.3955 53 22 16
0.125789 -0.151902 7.27757 87 90 61
1.61188 0.346379 7.69033 154 116 92
0.421853 1.0761 7.93016 165 153 128
0.0464691 -0.225885 7.23065 96 92 66
0.635792 0.834833 7.35202 108 64 42
0.191726 -0.1852 7.36048 117 118 90
-0.0493122 -0.338979 7.20041 85 86 62
0.1826 -0.200897 7.36459 130 132 89
1.58936 0.218733 7.86366 180 180 142
0.655232 0.857674 7.36753 164 122 104
0.650541 0.853724 7.33264 163 120 102
1.60995 0.230747 7.87669 142 124 87
1.46033 0.516945 7.71619 149 131 108
1.19995 0.920787 7.45526 49 22 16
1.60829 0.318514 7.71294 188 154 133
-0.0456508 -0.323116 7.19746 134 132 112
0.301499 -0.108983 7.42367 148 150 114
0.522017 1.35678 8.08742 53 14 6
0.0332496 -0.231065 7.25127 106 103 73
0.0231655 -0.314971 7.25659 141 138 94
0.0731149 -0.282178 7.29338 142 140 94
1.07952 0.0830869 7.78475 118 126 88
0.32569 0.260521 7.73342 180 183 143
-0.146452 0.275272 7.74059 148 128 77
1.57551 0.294664 7.84017 172 164 128
0.939422 0.413912 7.24382 122 126 110
1.60318 0.409907 7.67794 181 150 132
0.345916 0.440538 7.97458 208 190 154
1.53583 0.458202 7.62691 184 146 128
0.64138 0.567906 7.0943 120 122 104
0.883501 0.67752 6.90139 111 122 83
0.46513 0.70573 7.48373 104 76 64
0.533405 0.729452 7.50784 133 118 120
1.40948 0.713981 7.55094 74 58 39
0.544867 0.733959 7.46662 152 138 137
1.02126 0.726395 7.32642 28 12 4
1.07544 0.742496 7.22039 113 95 89
1.08282 0.766512 7.21534 50 20 16
1.03979 0.76987 7.23391 58 28 16
1.04484 0.776806 7.21177 155 120 112
1.04456 0.791811 7.1896 112 76 66
0.516343 0.824971 7.49233 124 82 64
1.29622 0.803241 7.30672 160 144 136
0.828213 0.777554 6.82916 68 42 24
0.508235 0.856515 7.47075 136 98 86
1.48586 0.817341 7.18881 120 122 96
0.530739 0.867567 7.50722 126 88 75
0.634911 0.86484 7.3383 160 114 94
1.23941 0.915734 7.44664 48 26 24
1.0397 0.92273 7.35473 40 16 12
0.546935 0.998304 7.71461 98 57 42
0.58726 1.214 7.8004 160 128 119
1.61826 1.11703 7.11569 93 63 43
1.09915 1.47589 7.70444 126 92 88
1.10722 1.47132 7.69409 120 86 83
-0.0119807 -0.30115 7.22291 110 106 84
1.94544 -0.334459 7.364 97 96 58
1.93253 -0.331411 7.38144 116 116 76
0.4435 -0.437093 7.84313 146 150 118
1.92159 -0.278696 7.47932 180 176 142
0.5565 0.262974 7.44277 150 150 122
0.332911 0.264883 7.68104 189 192 150
1.44239 0.484297 8.07169 146 126 91
1.53335 0.591965 7.67833 160 152 128
1.47971 0.717064 7.55959 148 112 96
1.42814 0.749149 7.4034 172 156 136
1.03689 0.768687 7.21799 44 18 8
0.825392 0.776437 6.83066 70 38 24
0.938151 0.786688 6.90006 76 44 34
0.637511 0.834071 7.35461 124 78 54
1.29231 0.887455 7.48262 60 30 23
0.772183 1.03185 7.46224 42 19 13
1.61039 1.12439 7.17708 154 138 124
0.619419 1.3339 7.87161 79 33 21
1.12199 1.39039 7.66687 106 70 70
0.996987 1.37124 7.55581 82 48 40
1.86602 -0.289275 7.37645 204 204 158
1.86535 -0.295064 7.40691 114 112 70
1.92067 -0.274527 7.4689 192 188 153
0.420607 -0.0116511 7.48978 159 158 116
0.346053 0.0496244 7.33893 152 150 125
0.524514 0.0691693 7.56616 183 186 142
0.649164 0.241597 7.53825 140 139 107
1.57408 0.248974 7.75215 130 116 78
0.360528 0.279308 7.75107 174 178 136
1.61931 0.251975 7.84325 202 192 158
1.61801 0.340034 7.7115 154 120 90
1.33933 0.357092 7.91356 192 200 160
0.618444 0.409229 7.98656 68 40 22
0.927853 0.67181 6.91657 140 146 123
0.882804 0.677301 6.90399 102 114 74
0.46803 0.705456 7.49263 110 82 72
1.034 0.692931 7.34553 88 78 64
1.33731 0.690513 7.43983 90 80 61
1.47713 0.696659 7.59577 190 158 142
1.48084 0.715717 7.57352 126 91 78
1.05436 0.724427 7.17953 58 44 31
0.492718 0.776992 7.47516 121 80 55
1.04906 0.762281 7.24441 144 106 98
1.03645 0.766887 7.20977 53 26 17
1.02536 0.811387 7.22911 125 106 98
0.635389 0.836241 7.39687 128 84 58
0.653004 0.854363 7.35901 179 132 109
0.669419 0.853464 7.32423 119 66 38
1.22585 0.864399 7.4048 62 33 29
0.819743 0.888653 6.94477 140 102 91
0.929637 0.89289 6.74934 112 114 96
0.772344 1.02747 7.4891 35 12 9
0.470925 1.21127 7.97616 153 128 106
1.63069 1.10262 7.10729 130 87 58
0.496767 1.32033 8.04652 146 120 102
1.61181 1.11451 7.10529 96 68 46
-0.0416137 -0.321299 7.1871 133 130 110
0.575387 0.110371 7.57229 176 178 136
0.326153 0.263162 7.67532 141 142 100
1.58816 0.243262 7.79922 138 124 86
1.55232 0.285247 7.90079 186 187 151
0.80878 0.512923 7.06764 116 112 88
0.545213 0.500616 7.75555 34 26 8
1.27801 0.663239 7.48464 89 82 68
1.34001 0.683204 7.53166 41 34 18
0.506207 0.73767 7.41717 112 84 62
0.534896 0.744622 7.46826 56 41 34
1.05799 0.729438 7.29912 134 109 91
0.929508 0.731596 6.89144 68 67 48
1.40057 0.742942 7.2584 154 140 123
1.08885 0.761364 7.21839 31 16 9
0.39802 0.828009 7.84356 113 70 47
0.826814 0.786111 6.78738 183 153 129
0.374342 0.867877 7.75851 120 92 70
0.498153 0.872202 7.6227 111 74 60
0.935958 0.822334 6.86281 176 140 119
0.831447 0.827676 6.81768 184 146 122
0.937727 0.840912 6.84124 190 152 134
1.22434 0.976158 7.50665 138 110 108
1.23576 0.978061 7.5068 67 42 36
1.20217 0.984192 7.47905 49 27 22
1.62059 1.11065 7.1399 205 198 190
0.875877 1.3267 7.1036 92 60 41
-0.0104676 -0.281437 7.18901 92 92 62
0.447235 -0.424284 7.80112 148 151 120
1.89093 -0.321389 7.48553 158 156 114
1.08586 -0.367033 9.16659 168 173 136
0.53933 0.154884 7.52021 130 128 105
1.09172 0.421705 7.18591 170 170 148
0.505576 0.474544 7.86814 53 44 26
1.4922 0.510618 8.01981 82 56 26
1.40238 0.57963 7.48966 112 84 54
0.459074 0.66425 7.38471 73 62 47
0.437636 0.716917 7.71645 102 74 60
1.41162 0.69987 7.5946 162 140 125
0.562649 0.754702 7.49693 58 34 28
1.02285 0.762453 7.1658 30 14 8
1.27482 0.785566 7.31359 105 96 83
1.19553 0.797451 7.37998 144 107 88
1.184 0.801823 7.33764 144 106 86
0.505152 0.887061 7.77564 72 35 24
0.566494 0.998487 7.64171 52 16 7
1.16649 1.17075 7.56303 90 55 50
1.19602 1.18717 7.6614 133 117 116
1.12534 1.28862 7.61057 135 92 92
1.96657 -0.344891 7.47022 84 83 48
1.8829 -0.303158 7.3934 200 202 157
1.87992 -0.310566 7.44045 197 199 154
0.0253241 0.18838 7.71409 140 136 92
-0.156565 0.26109 7.7342 144 122 74
1.60022 0.279589 7.76976 126 96 62
1.08931 0.42782 7.14447 169 172 148
1.45231 0.547529 7.89813 48 23 8
1.42757 0.646938 7.59537 158 118 95
1.47287 0.654818 7.65184 114 76 50
0.491895 0.735753 7.4699 113 84 62
0.826161 0.725368 6.8685 104 94 80
0.817578 0.772968 6.81537 70 33 20
1.18237 0.800114 7.30275 174 135 114
1.20615 0.915455 7.44819 74 46 41
0.55563 1.01015 7.73387 62 26 14
1.60759 1.10331 7.11529 204 199 191
1.62426 0.0977618 7.84938 88 81 36
-0.0610013 0.225476 7.70034 85 74 38
0.751316 0.240762 7.63249 204 211 164
1.60321 0.353103 7.67142 154 116 91
1.11023 0.417204 7.24618 187 189 157
0.630709 0.413616 7.91882 54 24 14
0.493944 0.736312 7.61222 86 60 45
0.544743 0.734924 7.28672 138 122 110
0.567871 0.740073 7.24826 64 42 30
1.28512 0.891618 7.50131 70 42 36
0.558886 1.0044 7.68307 60 26 12
1.22555 1.03592 7.50199 52 29 22
0.443591 1.15185 7.88495 139 116 92
1.58873 1.12687 7.22508 206 198 192
0.879705 1.35119 7.20872 86 49 35
1.07526 1.44506 7.58602 121 86 84
-0.0474401 0.224399 7.66562 106 98 60
1.59326 0.205125 7.85977 138 140 102
0.567121 0.373664 7.65117 202 208 162
0.357909 0.393377 8.1215 192 202 156
0.359355 0.480085 7.47203 177 152 116
1.29492 0.80603 7.34736 166 148 144
0.820645 0.788594 6.79717 192 154 134
0.422583 0.919296 7.61897 99 67 46
1.35653 0.931757 7.60684 112 82 80
1.54946 1.11862 7.16999 172 150 137
0.829878 1.42829 7.51031 78 34 27
0.149235 -0.200532 7.31307 131 132 106
1.20119 1.12494 7.61475 98 68 64
0.640881 0.568456 7.10024 110 112 92
0.182563 -0.198493 7.35025 126 128 84
1.62497 1.12695 7.16352 85 54 36
0.529473 0.73197 7.46802 183 173 183
0.405158 0.888719 7.75615 129 92 70
1.3048 1.30484 7.94183 116 78 73
1.03103 1.44449 7.58447 96 58 48
1.49415 0.618216 7.63909 142 100 82
1.17542 1.21115 7.64692 65 34 30
