ply
format ascii 1.0
element vertex 1325
property float x
property float y
property float z
property uchar red
property uchar green
property uchar blue
end_header
2.08115 -0.107078 4.58585 82 40 21
-1.64194 -0.107056 4.75499 133 107 90
1.57219 -0.104675 5.01203 38 20 6
1.56335 -0.0988659 5.02065 35 18 5
1.457 -0.0968775 4.98096 39 24 8
1.5174 -0.0935154 5.063 83 45 18
2.22119 -0.0811377 4.70013 46 20 8
2.21506 -0.0586253 4.70711 108 82 66
2.19303 -0.0434552 4.6909 114 93 74
1.36039 -0.025835 5.19411 150 106 80
2.20898 -0.0146179 4.71158 34 17 4
1.41723 -0.016043 5.15442 128 88 64
1.74928 -0.00954248 4.65649 118 84 70
1.77142 -0.0070943 4.62536 132 100 86
1.91599 0.0302033 4.57818 44 20 5
1.9125 0.0320423 4.59463 72 44 24
1.74944 0.0525679 4.673 38 22 15
2.02719 0.0665523 4.65068 97 52 26
1.7291 0.067593 4.71561 40 28 20
2.22604 0.108979 4.70725 112 67 50
1.75885 0.128914 4.81742 100 76 62
2.08671 0.130854 4.6889 123 104 88
-1.53067 0.186408 3.94502 124 30 13
1.40182 0.32193 4.87504 178 76 63
0.323118 0.297576 4.12988 137 84 67
0.350638 0.297711 4.13834 123 72 56
1.44198 0.339854 4.87458 116 36 34
1.69843 0.32851 4.62782 118 74 54
1.72243 0.341184 4.64362 192 160 150
1.44461 0.363819 4.87006 168 126 122
1.50226 0.380289 4.79307 108 80 76
2.00475 0.36674 4.54312 174 140 126
1.63049 0.389269 4.65971 132 96 80
2.46649 0.387839 4.74853 138 90 68
2.00084 0.386309 4.54889 118 72 53
2.46627 0.408294 4.7392 170 134 115
1.50509 0.418777 4.7926 168 141 138
1.96792 0.406174 4.55204 165 126 112
2.22605 0.40687 4.56603 110 80 60
2.32183 0.415517 4.61351 155 126 118
2.40226 0.421888 4.69817 56 32 24
2.19435 0.421337 4.51858 192 162 142
2.26309 0.422394 4.58028 192 140 119
2.43537 0.432187 4.69798 184 162 149
2.33859 0.434395 4.63665 88 46 37
2.44603 0.443422 4.71189 168 140 122
1.51622 0.450962 4.79033 117 90 87
2.433 0.447809 4.72048 82 58 50
0.161723 0.407258 4.05639 56 4 1
-0.492181 0.48758 4.96779 194 141 116
2.31032 0.463415 4.61639 178 127 110
1.42926 0.509868 4.99606 42 16 10
2.36693 0.4851 4.6728 38 20 13
2.36128 0.501217 4.67779 174 148 136
1.77007 0.500478 4.65012 134 93 78
-0.754352 0.536483 5.01334 159 108 84
2.24351 0.506843 4.6426 60 32 20
1.76433 0.521567 4.66589 182 146 137
1.79764 0.523367 4.63067 134 96 90
1.77822 0.531444 4.63624 164 103 89
2.08317 0.528399 4.60056 139 62 56
1.8016 0.537919 4.64046 118 30 28
-0.498387 0.570493 4.94539 216 162 127
1.71706 0.545253 4.69081 112 56 52
1.61147 0.558352 4.77842 124 92 85
1.80983 0.543126 4.59841 139 98 88
0.37326 0.495586 3.9446 49 28 19
0.804569 0.539787 4.3605 97 78 62
1.82713 0.572234 4.60939 191 121 94
2.25208 0.588754 4.6912 221 196 178
0.318654 0.51907 3.96548 54 37 24
0.792368 0.565727 4.40091 144 126 114
0.680572 0.546836 4.14155 131 113 98
2.23547 0.606369 4.66568 42 28 16
1.73906 0.614341 4.70675 51 19 15
1.76799 0.612015 4.67187 56 22 17
1.79556 0.617849 4.69651 70 36 36
1.83256 0.605104 4.62957 194 144 115
2.21704 0.615129 4.67861 98 84 76
1.90109 0.613915 4.63334 206 146 118
1.76522 0.621826 4.66905 48 24 19
1.77916 0.637241 4.70185 70 47 41
-0.115745 0.595861 4.30576 212 194 187
1.81751 0.638375 4.67568 162 128 126
2.22925 0.646341 4.71219 178 149 137
1.84447 0.644825 4.6573 166 136 129
1.9172 0.641268 4.63271 127 90 86
1.92001 0.656098 4.68554 49 24 24
0.774153 0.615482 4.28476 150 132 120
-0.0813311 0.621183 4.31457 157 130 118
0.66004 0.598516 4.13346 154 128 116
0.191431 0.612023 4.04574 200 174 164
0.813504 0.647455 4.3704 108 88 76
0.454098 0.626066 4.07565 196 174 170
-1.70747 0.611433 3.98203 114 50 38
0.202378 0.631786 4.02754 122 108 100
-1.75333 0.630076 3.88398 131 71 38
0.544129 0.686633 4.05755 216 202 198
0.225756 0.684948 4.01871 66 46 38
0.260968 0.681867 4.0113 78 56 50
0.484121 0.695697 4.033 55 36 30
0.49444 0.694397 4.02306 66 48 41
0.503025 0.694469 4.03097 80 64 56
-1.76376 0.758471 4.09623 104 40 22
0.628253 0.839092 4.20992 145 60 52
0.233599 0.902446 4.34044 169 155 156
0.25196 0.932227 4.32186 128 100 102
0.169117 1.00399 4.3685 190 158 152
-1.62254 1.04365 4.08525 117 52 42
1.36728 -1.34936 4.50819 144 121 92
1.97016 -1.03144 3.93655 173 154 146
1.97668 -1.03236 3.93566 240 222 218
1.45563 -1.06358 4.08627 147 118 102
1.84635 -0.99435 3.84191 92 66 59
1.56033 -1.01594 3.97634 143 106 87
-0.469998 -1.16173 4.73306 108 74 58
1.59302 -0.916692 4.02542 129 39 34
-0.403163 -1.03213 4.69369 146 90 67
1.52401 -0.894842 4.11817 131 74 65
1.46671 -0.904638 4.22741 132 100 83
1.80272 -0.849355 3.9775 194 182 174
1.48513 -0.895344 4.21018 164 124 97
-1.41031 -0.943956 4.4564 71 43 27
1.75894 -0.833948 3.96724 114 90 80
1.77304 -0.832627 3.96168 236 218 209
1.80504 -0.829109 3.94713 100 78 70
-1.55482 -0.907999 4.32489 148 101 76
1.80372 -0.823306 3.98905 77 51 44
-1.37428 -0.876661 4.44773 166 110 86
-1.63251 -0.844672 4.35256 155 107 82
-1.39204 -0.772247 4.40188 95 36 20
-0.569354 -0.812847 4.91893 118 88 56
-0.0894687 -0.818506 4.92458 85 69 30
-0.361806 -0.793021 4.8469 120 74 51
2.34255 -0.768561 4.71898 86 70 64
-0.242146 -0.800837 4.93813 131 82 67
-0.366931 -0.761197 4.86843 100 52 30
-1.29558 -0.729282 4.65859 162 141 98
1.72601 -0.751513 4.91977 122 87 54
2.02707 -0.673881 4.51656 102 84 72
-1.32715 -0.691476 4.68679 50 14 2
-0.160889 -0.669893 4.80214 150 100 82
2.47971 -0.667891 4.94678 104 89 66
-0.0521338 -0.626892 4.88245 124 102 78
-1.4831 -0.569938 4.56952 108 56 38
-0.0535462 -0.616616 4.89098 56 28 6
-1.4939 -0.554727 4.5788 168 110 82
-0.186462 -0.562902 4.79961 149 102 79
1.96547 -0.493275 4.31896 102 38 16
-0.134589 -0.551629 4.78104 180 130 108
1.91207 -0.491644 4.3357 149 53 27
-1.77141 -0.496174 4.60032 158 108 84
1.60992 -0.506097 4.82863 156 113 92
-0.560935 -0.457389 4.69334 127 82 50
1.89009 -0.414817 4.41577 79 72 74
2.16898 -0.402496 4.41175 190 122 89
1.87789 -0.383043 4.40996 110 98 98
2.02756 -0.382165 4.42742 72 42 32
2.14667 -0.374354 4.42839 174 100 73
1.84726 -0.336 4.50471 102 76 62
-1.77294 -0.302173 4.65152 52 18 6
1.46738 -0.314642 4.87263 112 70 44
2.06773 -0.274978 4.3819 72 27 18
-1.71844 -0.279332 4.64157 172 114 94
1.94148 -0.226223 4.43636 112 76 67
1.97522 -0.223595 4.45004 50 28 29
2.00668 -0.217641 4.42503 111 84 85
2.13854 -0.224843 4.46554 124 76 56
1.85701 -0.277127 5.30979 52 35 11
-0.689241 -0.188405 4.39076 88 37 23
-0.639791 -0.189214 4.39217 86 33 17
2.17619 -0.197246 4.4788 165 127 105
1.8917 -0.186925 4.43795 92 50 39
-1.71009 -0.197763 4.69036 42 12 5
1.96113 -0.18211 4.42973 31 10 5
1.97079 -0.183529 4.41844 32 10 10
1.94806 -0.177803 4.44442 94 53 34
2.07254 -0.173819 4.44279 64 41 38
1.81507 -0.161768 4.52066 174 130 108
-1.00096 -0.138417 4.2782 109 50 30
-1.72654 -0.149454 4.68945 122 96 75
-0.867845 -0.118542 4.28541 139 90 76
1.49365 -0.15058 4.9371 145 115 85
1.53212 -0.135028 4.93891 88 65 50
1.85123 -0.110006 4.492 200 170 150
-0.861285 -0.0958237 4.30814 58 14 4
1.47441 -0.112336 5.06123 34 18 8
1.55993 -0.10503 4.95739 29 16 4
-0.643451 -0.0720061 4.98722 162 112 88
1.34059 -0.0626339 5.215 116 92 64
2.22836 -0.0301904 4.68418 50 26 13
1.91981 -0.0114624 4.55436 172 146 132
1.81503 -0.00544097 4.67606 158 126 104
1.50983 -0.00916238 5.05247 160 117 93
2.15039 0.00201427 4.70033 52 31 18
1.91763 0.0120665 4.56141 184 158 139
1.7575 0.0247907 4.66147 130 106 97
1.92763 0.0550819 4.61216 145 124 108
2.23436 0.145629 4.73887 196 176 164
1.89967 0.182979 4.69222 166 123 98
0.379825 0.2227 4.12356 158 135 112
0.32296 0.296706 4.13751 116 67 48
1.96938 0.355771 4.54695 163 120 100
2.19797 0.362105 4.54866 144 110 94
1.9374 0.372353 4.60025 122 78 56
1.97385 0.379453 4.55149 108 64 40
1.99284 0.382811 4.53396 118 74 54
1.93389 0.390684 4.58153 149 114 96
2.24582 0.391389 4.5654 190 156 140
2.22836 0.40668 4.57171 160 132 112
2.17966 0.419267 4.57683 148 118 105
2.22481 0.429963 4.61645 191 160 142
1.52033 0.449541 4.80575 124 98 94
2.27133 0.432854 4.58113 165 108 88
2.40897 0.444393 4.66642 74 51 42
-0.492826 0.483014 4.97023 184 130 108
1.42149 0.490036 5.00721 44 24 14
1.45037 0.501831 4.99772 138 127 118
2.35291 0.479132 4.65315 40 16 8
2.29019 0.509914 4.64358 73 44 32
1.92097 0.526416 4.59498 119 114 104
1.77607 0.531301 4.63956 153 94 80
1.80288 0.537602 4.66441 126 52 46
1.72094 0.546719 4.7039 144 93 86
1.91597 0.570954 4.61325 119 59 53
1.71458 0.583437 4.70275 134 92 90
1.83233 0.573054 4.61698 178 108 81
1.90294 0.580527 4.62216 198 137 104
0.682058 0.541061 4.17572 151 134 119
2.20245 0.594301 4.66793 92 73 68
0.68066 0.551012 4.1531 110 88 74
1.75755 0.618484 4.69409 164 134 130
1.77369 0.620433 4.67825 64 38 31
1.79124 0.641368 4.69639 46 26 21
1.85577 0.634664 4.64503 54 26 21
1.83984 0.642461 4.64144 148 114 108
2.16705 0.646702 4.65032 146 118 108
1.85615 0.655632 4.64337 78 56 50
1.88166 0.662901 4.64206 46 28 25
0.192232 0.603145 4.05436 200 172 164
0.233089 0.623964 4.06113 96 81 74
0.144593 0.626485 4.08843 177 118 112
0.514326 0.629997 4.04479 96 80 74
0.168397 0.639432 4.05907 178 158 151
-1.76736 0.641366 3.93732 124 44 18
0.485438 0.693568 4.03109 40 21 15
-1.75552 0.758049 4.07608 104 39 20
-1.79538 0.847867 4.13504 118 40 20
0.234074 0.897373 4.32513 161 136 136
0.247849 0.92959 4.32316 96 70 71
1.46523 -1.61315 4.74119 94 76 37
1.95496 -1.17252 4.01156 22 16 9
1.69057 -1.08467 3.96812 168 127 106
1.83507 -1.03411 3.90078 246 235 225
1.921 -1.01196 3.82047 201 180 172
1.4703 -1.0422 4.06357 146 99 76
1.92978 -0.996387 3.8687 95 76 66
1.48095 -1.00088 4.03337 114 75 52
1.36417 -1.11003 4.56024 92 86 58
-0.509871 -1.14081 4.75002 81 49 34
-0.490094 -1.10421 4.71537 58 22 8
-0.466651 -1.10495 4.7164 80 42 29
-0.409278 -1.0827 4.71279 122 76 59
-0.344829 -1.06414 4.71811 116 73 54
1.81787 -0.865118 3.93875 152 124 117
1.52228 -0.89405 4.11345 140 85 74
1.55902 -0.886081 4.06778 136 72 62
1.47721 -0.911911 4.20848 110 74 52
1.79515 -0.840514 3.94771 220 210 202
-0.309657 -1.01327 4.73389 85 48 34
1.48023 -0.89112 4.19133 171 132 106
1.77642 -0.835734 3.96795 206 188 177
1.79787 -0.820862 3.97049 113 88 81
-1.38161 -0.947826 4.60836 139 100 73
1.49777 -0.867884 4.20345 146 114 98
-1.58063 -0.859473 4.30381 161 114 90
-1.34588 -0.916727 4.56516 128 90 60
-1.45727 -0.866529 4.37554 56 23 11
-0.331632 -0.954931 4.75711 110 68 54
-1.62106 -0.835455 4.31652 158 108 82
-1.47489 -0.836335 4.3429 82 41 24
-0.29263 -0.928529 4.76089 108 69 58
-0.564752 -0.911582 4.70026 104 28 12
-1.60305 -0.81906 4.32293 160 113 85
-0.128756 -0.897514 4.95957 132 120 80
1.62076 -0.84358 4.92171 164 150 104
1.60403 -0.833187 4.94254 125 98 54
-0.0887978 -0.817064 4.92438 86 72 32
-1.47512 -0.7011 4.38373 125 67 52
-0.567444 -0.81511 4.96419 78 44 18
-0.3769 -0.79229 4.88372 131 82 56
-0.239157 -0.795096 4.89388 124 76 60
-0.0864726 -0.776527 4.89715 144 137 92
2.433 -0.770044 4.88846 70 48 42
-0.502643 -0.771486 4.94448 199 144 114
-0.0434114 -0.630496 4.87284 135 118 86
1.53038 -0.543815 4.74727 130 94 76
-1.77511 -0.496933 4.60792 152 103 80
-1.75467 -0.500371 4.61159 160 106 79
1.85972 -0.477783 4.40865 161 100 88
1.88973 -0.450114 4.38517 159 68 39
-0.080629 -0.497964 4.8932 57 24 6
-0.0631356 -0.480861 4.89011 128 104 80
-0.520252 -0.436665 4.65872 118 70 44
-0.18908 -0.456761 4.81259 164 111 87
1.84922 -0.423845 4.47561 75 53 44
2.2015 -0.394568 4.38558 189 128 99
1.60789 -0.429807 4.82355 98 58 41
1.88423 -0.384694 4.4231 100 88 88
2.02383 -0.381802 4.41843 78 45 34
1.86379 -0.376227 4.47433 133 109 95
2.03216 -0.355355 4.39039 48 20 12
1.49181 -0.381114 4.82966 149 113 90
1.54686 -0.363893 4.78038 49 12 3
1.84969 -0.336456 4.50685 50 27 16
1.91174 -0.327257 4.43924 89 84 86
1.44869 -0.362907 4.88913 138 109 82
-0.154262 -0.327589 4.97129 88 58 30
2.16578 -0.288377 4.46862 178 142 122
1.92632 -0.277172 4.46946 22 14 18
-1.72207 -0.283076 4.6466 159 102 82
2.05516 -0.259984 4.44212 59 32 30
2.12757 -0.268342 4.48619 118 69 50
-0.633148 -0.25726 4.4829 116 70 52
2.13783 -0.245771 4.46179 80 28 16
1.82213 -0.224948 4.48551 184 135 110
1.98032 -0.224218 4.46187 44 23 22
1.94608 -0.221389 4.48555 159 116 100
2.1616 -0.204663 4.48919 122 72 50
-0.642375 -0.190774 4.38262 80 28 12
1.94979 -0.201132 4.45155 136 92 74
1.81243 -0.194177 4.5073 86 39 20
1.81549 -0.187385 4.44168 72 25 10
1.91059 -0.188723 4.44668 88 50 39
1.97218 -0.185796 4.45305 38 14 8
-1.73146 -0.191132 4.68178 142 118 99
-0.702452 -0.172308 4.38439 180 122 103
1.86762 -0.177624 4.4595 66 20 4
-0.918724 -0.157929 4.2567 158 108 94
1.97537 -0.168175 4.43175 114 87 78
-1.72864 -0.15136 4.69594 132 108 87
1.50981 -0.147249 4.93357 162 128 108
-0.930404 -0.106609 4.27886 124 72 58
-1.49379 -0.0873702 4.65627 71 26 9
2.18829 -0.0426316 4.67332 118 98 79
1.36153 -0.0269141 5.19359 141 98 72
1.80399 -0.0100708 4.66911 162 129 106
2.20465 -0.0144899 4.71827 20 12 6
1.92367 0.0296324 4.59435 52 30 14
1.93371 0.0545876 4.63875 164 136 119
1.3424 0.115928 5.16855 115 78 48
2.07292 0.132586 4.64503 122 104 88
1.38398 0.257967 4.90981 162 112 92
1.36539 0.279485 4.90436 172 136 120
1.3502 0.292729 5.07613 103 80 62
1.35285 0.293392 4.97217 158 133 118
0.322108 0.293755 4.13191 112 61 40
1.87608 0.309562 4.55803 173 124 103
1.64671 0.339831 4.63827 179 144 134
1.4473 0.36186 4.86499 158 100 98
1.98024 0.356338 4.57578 154 110 90
1.47641 0.379213 4.83043 172 142 134
2.01497 0.366011 4.55133 171 140 130
1.51148 0.416231 4.80011 165 138 134
1.97286 0.402552 4.55647 165 126 112
2.0233 0.410067 4.56413 142 106 94
2.22378 0.426754 4.65923 166 133 117
2.2669 0.433807 4.59457 190 156 138
2.21631 0.446808 4.58586 142 108 94
1.75364 0.487754 4.98921 234 218 212
2.30582 0.459743 4.62982 182 142 122
1.44636 0.497101 4.96149 131 124 112
2.39378 0.484076 4.6804 159 139 125
1.77661 0.497752 4.66347 168 133 122
1.4295 0.534965 5.0303 152 128 116
-0.754976 0.535533 5.0236 158 107 83
2.29152 0.509638 4.64608 50 22 8
1.75483 0.5167 4.64455 178 148 140
1.74688 0.529654 4.69352 160 106 106
1.91658 0.523585 4.58475 116 114 104
1.71971 0.538299 4.68481 159 114 109
-0.598697 0.585503 5.08144 212 159 125
1.71843 0.586709 4.71369 122 78 78
0.787426 0.561704 4.39829 147 130 116
0.316527 0.518267 3.95722 60 42 30
0.831937 0.55738 4.35856 112 95 82
2.23264 0.603242 4.67152 46 31 20
1.73838 0.609993 4.70496 56 20 16
1.89891 0.607938 4.63113 192 140 98
-0.129562 0.576709 4.30382 118 91 81
0.820575 0.576446 4.29156 164 148 142
1.86232 0.635965 4.65311 60 28 22
0.371263 0.571881 3.99563 47 34 18
0.656533 0.603597 4.14208 154 118 108
0.810641 0.640911 4.35469 101 78 66
0.228284 0.61676 4.01798 79 64 58
0.256068 0.618525 4.02097 89 75 70
0.27697 0.637711 4.05652 96 82 80
0.223572 0.640036 4.01641 139 122 116
0.545792 0.686898 4.07454 196 182 179
-1.80196 0.85423 4.14341 131 63 28
0.143151 0.996428 4.35783 98 66 58
0.169345 1.00176 4.37077 140 107 100
1.36322 -1.25481 4.44099 93 65 32
1.32554 -1.23541 4.51722 108 80 42
1.84005 -1.03114 3.85671 202 178 168
1.44875 -1.06671 4.08151 150 117 97
1.56512 -1.01897 3.9884 132 91 71
1.56054 -1.00093 3.96695 156 124 112
-0.413747 -1.19256 4.73418 92 63 42
1.40531 -1.02649 4.23774 100 87 73
-0.382665 -1.12781 4.72923 100 62 44
-0.555774 -1.12906 4.79052 120 74 56
1.59313 -0.916177 4.02526 131 34 30
-0.34531 -1.06724 4.72392 104 63 44
1.52296 -0.89559 4.11587 140 85 74
1.57089 -0.891 4.0904 142 79 70
1.47547 -0.911895 4.21388 126 91 68
-0.639322 -1.04806 4.87101 156 107 81
-0.504905 -1.00885 4.70923 95 40 20
-0.308087 -1.01226 4.72949 98 59 44
1.54854 -0.86933 4.09501 34 10 1
-0.382065 -1.00507 4.71702 142 86 64
1.75676 -0.832223 3.96046 113 90 79
1.82185 -0.832658 3.97736 99 76 68
-0.601166 -1.0067 4.76688 92 39 22
-1.61299 -0.884762 4.32135 140 96 72
-1.33709 -0.907124 4.53697 140 100 70
-0.290477 -0.931048 4.76832 101 62 52
-1.63833 -0.809047 4.28212 59 27 14
-1.68465 -0.814451 4.36427 125 82 61
-1.67664 -0.782434 4.3383 56 22 10
-1.64532 -0.747678 4.38472 152 108 85
-0.367449 -0.78631 4.80684 128 79 54
1.7475 -0.801714 4.91373 98 54 21
-1.6195 -0.680313 4.36045 111 72 52
-0.362924 -0.761066 4.85573 90 42 22
2.39744 -0.747333 4.84028 22 12 4
-1.33012 -0.688516 4.6886 50 14 4
-0.0737406 -0.692269 4.85588 138 92 65
1.55425 -0.652145 4.86977 110 46 26
-0.0657895 -0.647949 4.89434 49 20 8
-0.0410097 -0.633 4.8828 118 102 68
-0.190901 -0.56825 4.81943 131 84 64
-1.48852 -0.520592 4.57206 105 48 28
-0.136312 -0.553785 4.78193 166 116 93
-0.555922 -0.454957 4.68292 118 72 42
-0.0588877 -0.479554 4.89627 144 124 98
2.00588 -0.427737 4.41368 34 5 0
-0.192247 -0.458708 4.84244 150 98 76
1.89332 -0.41299 4.42034 102 95 97
1.90701 -0.387645 4.46977 112 101 100
1.61332 -0.430862 4.87024 90 54 36
1.49225 -0.380801 4.82107 164 130 109
-0.13977 -0.369092 4.98466 164 147 121
-1.6275 -0.317098 4.62143 96 50 36
-1.79307 -0.307407 4.62933 174 144 113
-0.981298 -0.263177 4.27432 218 162 120
1.8882 -0.287524 4.56879 82 58 48
2.16935 -0.284992 4.46719 179 144 124
-1.71748 -0.279435 4.62754 152 94 75
2.06834 -0.272409 4.41604 56 17 9
2.1142 -0.267381 4.44259 140 82 58
2.12828 -0.244595 4.43834 88 32 16
1.81739 -0.307581 5.26301 46 26 9
1.96783 -0.226414 4.46738 40 16 11
1.96413 -0.191936 4.43858 44 19 15
-1.02985 -0.179107 4.28665 168 108 85
1.91128 -0.186273 4.4522 80 42 30
-1.73439 -0.187787 4.68021 142 118 99
1.87196 -0.178838 4.46634 82 34 18
-0.999623 -0.143389 4.27505 118 59 40
-0.683543 -0.143203 4.38191 107 48 31
1.90721 -0.142858 4.42206 182 152 137
2.10774 -0.147031 4.47405 170 138 121
-0.923748 -0.109505 4.26442 104 54 42
1.47171 -0.0655761 5.05765 117 92 70
2.19799 -0.0430707 4.68161 124 100 78
2.22118 -0.0379935 4.65404 36 16 7
1.80136 0.00568001 4.66852 47 20 6
1.90556 0.107717 4.71803 109 78 59
2.07285 0.134049 4.65063 123 104 88
2.23746 0.145046 4.74023 175 156 142
1.38196 0.256958 4.90211 162 112 92
0.321692 0.295961 4.14833 132 80 61
1.64686 0.344426 4.63792 180 146 137
1.72909 0.346995 4.6483 186 155 146
1.48148 0.381698 4.85097 169 139 132
2.18241 0.358187 4.52298 149 118 102
2.01997 0.367564 4.55224 180 152 144
1.97121 0.37567 4.53443 108 62 40
1.63892 0.394213 4.67878 122 81 66
1.99341 0.384251 4.53692 118 73 53
1.51532 0.417499 4.81545 167 140 136
1.67305 0.424071 4.72151 129 91 76
1.68129 0.417984 4.65826 133 90 76
2.02194 0.410757 4.56002 143 108 98
2.19957 0.423876 4.61603 144 114 100
1.98694 0.434528 4.54812 134 94 80
1.45215 0.499182 4.95854 136 126 116
1.78323 0.501275 4.67599 138 96 79
-0.753727 0.539578 5.03763 160 108 84
2.29675 0.510988 4.65883 50 22 8
1.76585 0.521589 4.68997 182 153 146
1.73141 0.539418 4.70396 151 104 100
-0.916568 0.56198 4.90208 51 18 10
1.81143 0.540536 4.67034 116 31 28
2.07326 0.536242 4.6 142 59 49
-0.494045 0.572182 4.94614 216 162 126
1.91092 0.57315 4.60523 128 47 40
-1.59255 0.592554 4.78863 186 136 110
0.769338 0.553963 4.3285 148 131 116
1.89671 0.583486 4.62007 194 141 98
0.428298 0.521505 3.96408 70 54 40
2.23648 0.605459 4.68806 33 21 12
-1.09691 0.63653 4.82527 147 98 76
0.813325 0.576534 4.27259 134 115 108
1.77525 0.627784 4.72616 168 140 137
2.22677 0.636033 4.71258 179 154 143
-0.116908 0.596027 4.31453 184 165 160
-0.0894331 0.605431 4.32028 86 58 52
1.83226 0.642649 4.66995 163 132 126
1.86219 0.640167 4.64529 37 15 14
0.370277 0.572857 3.99036 65 50 36
1.891 0.662463 4.65084 30 16 16
0.648527 0.605295 4.10357 156 112 102
0.194137 0.602122 4.07857 198 171 160
0.813402 0.641138 4.37057 104 80 70
0.395802 0.638554 4.06087 144 68 62
0.220198 0.643173 4.02898 172 156 150
0.230443 0.673273 4.02862 50 30 22
0.479696 0.680456 4.034 45 26 19
0.511057 0.681896 4.04669 48 28 18
0.178926 0.90364 4.3607 173 132 126
0.248441 0.934205 4.34654 124 100 100
0.145063 0.988451 4.3139 97 66 58
0.198657 1.01189 4.33243 104 74 68
1.67409 -1.07007 3.91812 178 137 118
1.46713 -1.03681 4.09704 116 81 65
1.48056 -1.02073 4.08577 108 63 39
-0.520227 -1.12004 4.7716 64 26 10
1.45628 -0.973598 4.18254 129 102 90
1.58275 -0.911024 4.02444 128 18 14
-1.40884 -0.943535 4.45063 83 52 34
1.78316 -0.842644 3.99085 164 141 134
-1.62785 -0.892935 4.35053 136 90 66
-0.337963 -0.951525 4.74023 128 82 66
-1.48351 -0.841449 4.3689 82 42 26
-1.36484 -0.862004 4.46919 54 18 4
-1.69385 -0.824234 4.39331 120 78 56
-1.48132 -0.739116 4.37086 172 109 88
-0.0930338 -0.836486 4.91064 86 74 34
-0.0934099 -0.817542 4.92892 76 60 22
-0.568102 -0.81341 4.96523 62 29 7
-0.122433 -0.787143 4.8955 36 12 3
1.84905 -0.713414 4.64116 111 102 84
-1.50565 -0.640756 4.43443 78 31 18
1.90816 -0.632063 4.35656 128 38 31
1.8719 -0.645622 4.59781 100 96 80
1.56387 -0.6656 4.93481 129 81 54
1.9213 -0.49299 4.36273 132 33 14
-0.497992 -0.480947 4.69388 140 88 62
1.89749 -0.453068 4.40512 144 54 32
-1.77131 -0.452812 4.60825 64 24 10
-0.559728 -0.454999 4.7023 118 73 42
-0.517738 -0.43268 4.63558 117 70 43
-1.73772 -0.379414 4.56609 162 106 74
1.84522 -0.336853 4.49339 72 50 40
-1.77197 -0.329472 4.56754 94 51 24
-0.136112 -0.36708 4.99769 162 139 115
-0.54724 -0.326092 4.5497 144 92 62
-1.6367 -0.31719 4.62977 100 54 35
-1.76793 -0.305287 4.6472 54 22 12
2.16426 -0.285861 4.46444 173 129 110
2.05072 -0.255155 4.43543 47 22 20
-1.80225 -0.260681 4.64416 135 114 88
2.12641 -0.245956 4.45953 72 24 14
1.83058 -0.233957 4.4915 181 136 110
1.93901 -0.221464 4.42399 43 16 12
1.90595 -0.184367 4.46531 91 51 36
2.07965 -0.18556 4.44702 56 31 26
-0.568871 -0.157276 4.68435 109 59 42
1.46161 -0.135678 5.18982 151 124 107
1.53026 -0.126566 5.01377 34 16 5
1.88917 0.0159397 4.56711 180 150 128
1.96614 0.03466 4.64039 171 150 138
2.0289 0.0551639 4.66838 68 34 18
1.95559 0.0743616 4.60484 23 20 16
1.34358 0.114584 5.18849 109 76 45
1.87157 0.18795 4.71987 106 60 34
1.85028 0.269458 4.62644 142 108 92
1.38123 0.310313 4.9399 116 39 30
1.42471 0.337175 4.88117 138 26 18
1.92952 0.356609 4.55589 120 76 52
1.98503 0.358032 4.60739 154 110 88
2.17672 0.359687 4.53321 144 112 98
2.02234 0.36947 4.57025 178 152 144
1.65108 0.416852 4.68161 122 84 70
-0.492599 0.476283 4.96396 186 132 111
1.42958 0.502917 5.02822 40 19 11
1.43076 0.536197 5.02857 154 130 116
1.7646 0.522303 4.70692 180 154 147
1.72305 0.543659 4.70382 160 112 106
0.450463 0.518762 3.97642 94 84 68
-0.0799385 0.559079 4.3164 162 134 122
2.20001 0.595413 4.65421 61 44 39
-1.10518 0.636022 4.8446 140 90 69
2.22246 0.635748 4.72557 178 154 144
0.450619 0.564197 4.02251 94 58 44
0.810245 0.638249 4.36344 105 80 68
0.314288 0.622147 4.06213 139 117 112
0.220466 0.645598 4.03336 151 134 128
0.229936 0.674124 4.02354 46 26 18
0.623226 0.838097 4.21427 153 31 27
0.0790601 0.883787 4.37435 103 64 54
0.227445 0.899132 4.33754 126 98 98
0.256209 0.908244 4.3352 66 38 43
0.168382 0.929832 4.32101 161 134 127
0.244809 0.92785 4.30951 89 62 62
0.20306 1.01409 4.36109 92 59 52
1.66794 -1.07616 3.92574 142 98 74
1.76758 -0.990317 3.81185 163 134 121
1.55875 -0.977718 4.00831 121 74 50
1.45557 -0.974871 4.186 128 100 88
-0.417834 -1.08153 4.71137 148 98 78
1.58018 -0.913911 4.03164 128 24 20
-1.57345 -0.91964 4.33381 128 88 64
-0.502793 -1.00851 4.69604 97 43 23
-0.305746 -1.01549 4.7338 114 72 56
-0.38322 -0.999647 4.71768 146 88 66
1.7575 -0.832578 3.97025 142 115 104
-1.61138 -0.882329 4.31912 138 92 68
-1.37564 -0.919281 4.4794 161 108 80
-0.101547 -0.830046 4.8881 82 62 26
-0.573358 -0.799131 4.83398 146 137 90
-0.128078 -0.783085 4.90071 22 6 0
-0.0889017 -0.782254 4.91018 68 50 18
-1.27196 -0.727782 4.61266 156 137 94
-0.370546 -0.762286 4.87529 92 46 25
-0.537367 -0.740544 4.87294 130 80 47
-0.0391277 -0.73788 4.87109 90 70 23
2.04066 -0.685902 4.55513 98 84 69
-0.0269206 -0.715759 4.89546 90 68 29
1.85318 -0.594734 4.32997 160 80 56
1.55237 -0.661869 4.88631 112 64 36
1.86804 -0.621477 4.65645 132 115 102
-0.0794622 -0.639507 4.86126 32 12 6
-0.0725725 -0.617689 4.88051 42 18 6
1.72496 -0.593468 4.88652 66 38 15
1.85866 -0.569927 4.68768 152 126 113
-1.80394 -0.440605 4.59414 157 144 124
-0.0606518 -0.478083 4.90512 148 128 104
2.00814 -0.428806 4.45231 42 14 10
-1.77261 -0.432116 4.6107 61 32 21
-1.65214 -0.397964 4.59002 106 62 38
1.85632 -0.373659 4.49382 149 120 102
-1.78117 -0.371249 4.59917 192 144 114
1.50227 -0.389126 4.88349 138 102 78
1.56683 -0.368722 4.85202 64 26 16
1.86859 -0.295797 4.49922 96 72 64
1.46419 -0.311158 4.84541 114 74 46
1.84348 -0.235002 4.52457 184 134 108
1.91179 -0.223322 4.48511 178 152 138
1.90491 -0.18218 4.51997 94 46 32
1.4642 -0.156075 5.07464 35 16 4
1.42635 -0.133999 5.05983 160 134 112
1.88902 -0.0551186 4.51553 161 136 117
1.81318 0.00299136 4.74855 46 18 6
1.93218 0.0411732 4.5901 162 134 116
1.36351 0.0964372 5.11883 163 134 120
2.22361 0.142297 4.72805 178 156 142
0.343082 0.217405 4.36508 103 82 62
1.36774 0.288341 5.01383 172 142 127
1.85719 0.300412 4.4772 140 90 64
1.4198 0.333957 4.86502 138 26 18
1.93743 0.327167 4.52923 98 56 32
2.03518 0.366257 4.58243 174 148 140
2.00864 0.414103 4.56396 149 108 90
1.94615 0.424539 4.59453 152 120 104
2.17378 0.424539 4.58233 150 121 109
1.99467 0.437006 4.58473 134 94 78
-0.490494 0.479021 4.99368 190 137 116
1.44351 0.501113 4.956 148 130 122
-0.854101 0.56794 5.05269 94 62 54
-0.487355 0.599048 5.12247 209 155 120
0.376188 0.49995 4.0047 42 16 8
0.306327 0.532487 4.0266 88 56 44
1.72734 0.603853 4.71244 123 81 81
2.21122 0.606395 4.67818 40 26 22
-0.119939 0.595094 4.29721 130 109 100
0.365476 0.574785 4.00977 81 68 56
-1.58801 0.662185 4.73949 200 148 118
0.655015 0.607062 4.13091 158 124 114
0.143028 0.639757 4.13185 160 88 80
0.0680189 0.895435 4.3918 123 86 76
0.17516 0.898539 4.32645 132 116 109
0.225087 0.904095 4.34468 120 103 102
0.233996 0.972251 4.18386 80 46 40
1.43781 -1.1948 4.14985 148 126 104
1.5287 -1.09343 4.05678 112 10 6
1.5692 -1.01343 3.99428 160 130 116
1.38182 -1.07097 4.40857 96 88 69
1.39555 -1.03807 4.27451 86 80 68
1.40781 -1.0135 4.34073 82 71 62
-0.378419 -0.999754 4.74885 138 86 65
-0.571018 -0.917179 4.70109 146 72 48
-0.346599 -0.897806 4.76784 134 82 62
-1.40851 -0.773052 4.39889 78 28 16
-0.37034 -0.843917 4.84891 36 6 0
-0.61694 -0.820648 4.96824 146 141 92
-0.488748 -0.765577 4.88238 204 149 119
1.7252 -0.76004 4.93181 95 52 20
1.84506 -0.714347 4.67283 117 104 86
-1.32736 -0.672411 4.66058 58 23 10
1.85486 -0.684037 4.62843 148 126 112
-0.173692 -0.680408 4.85813 136 86 68
1.86122 -0.451473 4.42695 27 10 6
-1.80847 -0.445398 4.5889 158 143 123
-1.78492 -0.381823 4.64596 159 104 72
-1.7816 -0.331636 4.57801 94 55 26
1.47548 -0.318014 4.89429 110 70 44
-1.72288 -0.276053 4.61746 155 100 76
1.90872 -0.226706 4.49283 178 152 137
-1.78911 -0.220206 4.64718 128 102 80
1.96098 -0.195905 4.44636 60 30 22
1.46566 -0.196753 4.96202 110 85 57
1.51167 -0.169069 4.94621 166 135 112
1.90689 -0.141374 4.45314 182 156 139
1.44253 -0.0952475 5.06221 16 8 4
1.80925 -0.0208567 4.71873 164 121 96
1.87825 -0.00101267 4.56826 184 154 132
1.79859 0.00280432 4.7411 44 20 10
1.44567 0.0139509 5.02062 129 104 83
1.76082 0.0126485 4.91755 98 78 68
1.34071 0.319068 5.06833 69 48 30
1.85696 0.305263 4.53734 133 86 62
2.03115 0.36344 4.57062 166 136 127
1.48453 0.387773 4.795 102 74 72
1.90526 0.391041 4.59132 174 146 133
1.93705 0.420042 4.58158 152 120 102
1.4989 0.450747 4.79818 113 86 86
-0.589369 0.486676 5.00459 170 116 86
1.41738 0.495719 5.00438 67 44 35
1.77148 0.492887 4.66038 178 146 134
-0.750788 0.548887 5.08529 167 117 90
-0.654281 0.572703 5.02012 204 155 124
-0.609754 0.565957 4.97512 205 153 117
1.60782 0.552517 4.80042 152 122 115
2.06108 0.526948 4.59522 184 142 130
-1.6304 0.58668 4.8494 169 120 98
0.443435 0.514177 3.96734 93 85 70
1.73945 0.610569 4.74046 126 87 86
1.85847 0.595854 4.66271 190 147 93
-1.62659 0.618035 4.63089 99 62 29
-1.09153 0.637513 4.79899 140 90 69
1.79132 0.635035 4.72349 32 13 8
-1.19449 0.65005 4.77561 64 28 15
1.87484 0.651895 4.66145 32 20 20
0.571143 0.651945 4.08169 144 120 120
0.485898 0.678935 4.03911 43 25 18
0.514128 0.723736 4.09335 137 116 111
0.419519 0.911582 4.40157 126 59 58
0.218883 0.960023 4.47469 90 67 66
1.46756 -1.03252 4.07996 120 74 51
1.5143 -0.931359 4.14416 120 28 22
-0.499026 -1.01425 4.71368 106 52 29
-0.571278 -0.920124 4.68969 121 46 25
-0.536885 -0.893842 4.7303 190 128 106
-1.50239 -0.777243 4.41733 172 113 92
-1.41497 -0.773927 4.3966 134 80 64
-0.415737 -0.779668 4.85615 148 94 68
-0.490238 -0.773589 4.89527 162 104 78
-1.32358 -0.671776 4.64133 52 19 6
-1.50445 -0.633985 4.4922 151 92 74
-1.51791 -0.586255 4.52196 27 8 6
-1.77073 -0.378747 4.58923 171 119 87
-1.71095 -0.321192 4.51711 66 28 16
-0.135682 -0.36752 4.97761 165 146 122
-1.6417 -0.311463 4.58793 102 56 36
1.8741 -0.232257 4.41653 178 151 137
-0.554002 -0.162125 4.6012 127 76 60
-1.6529 -0.145519 4.69993 92 41 22
-1.22147 -0.127663 4.35596 152 97 70
1.90526 -0.138864 4.48043 184 157 138
1.95986 0.02146 4.62916 98 78 66
1.86589 0.162895 4.7344 98 56 31
0.135371 0.318594 3.9829 28 8 7
1.72333 0.356374 4.62606 184 158 152
1.88501 0.384588 4.56869 145 104 84
1.44497 0.541879 5.03437 157 135 123
-0.790432 0.550279 5.02653 82 34 18
-0.935802 0.557289 4.86174 46 16 11
1.72689 0.565721 4.70523 110 50 50
-1.09885 0.637336 4.8365 131 82 60
-0.930076 0.653359 4.86598 74 37 27
0.658368 0.595801 4.09549 146 118 108
0.483399 0.663836 4.03071 68 50 44
0.215024 0.707718 4.23104 89 73 68
0.274629 0.908386 4.36369 60 20 20
0.364217 0.954701 4.35994 56 22 20
1.3426 -1.45974 4.63958 128 108 64
-1.50567 -0.7277 4.40601 121 70 56
-0.573348 -0.809122 4.98035 72 36 9
-1.27973 -0.721169 4.63247 163 141 102
1.72567 -0.691929 4.90522 76 33 11
-1.76884 -0.375879 4.62809 205 150 111
1.50342 -0.376101 4.90086 62 20 3
-1.65177 -0.20406 4.6559 132 86 68
-1.75759 0.0144686 3.47679 62 30 30
-1.76281 0.0229916 3.47595 48 22 21
1.35481 0.0703535 5.1498 131 97 74
2.27834 0.0864508 4.67301 65 48 35
0.322529 0.267689 4.12504 140 96 72
0.276993 0.920923 4.32654 85 49 50
-1.59178 -0.929004 4.35226 122 81 57
-1.36718 -0.854173 4.45533 71 28 9
-1.49073 -0.831021 4.36748 92 45 30
-1.3426 -0.790914 4.41377 127 72 54
-1.77712 -0.57702 4.59323 116 92 68
-1.78693 -0.439485 4.59961 149 126 104
-1.77738 -0.426302 4.60583 48 20 10
2.0527 -0.267198 4.44496 66 34 30
1.9058 -0.226665 4.43849 172 144 131
-1.72792 -0.193867 4.68682 142 114 95
-1.76545 -0.0282315 3.49642 158 114 112
-1.75522 0.0681088 3.67615 146 103 82
0.271902 0.918584 4.31521 72 37 36
0.144233 0.997356 4.34913 99 68 59
1.55813 -1.01631 3.97123 134 94 74
1.41537 -0.992356 4.28923 77 60 54
-1.48905 -0.828492 4.36538 110 60 45
-0.592932 -0.776652 4.98729 152 106 72
1.47367 -0.537103 4.69895 91 70 54
-1.7745 -0.452997 4.60966 80 40 22
-1.82173 -0.358195 4.58773 118 96 68
-0.879472 -0.128153 4.27887 146 98 82
-1.7892 0.0369219 3.434 148 94 97
-0.0952864 0.642035 4.31473 114 88 81
0.236993 0.657995 4.02755 84 68 62
0.232241 0.687029 4.02585 64 44 36
0.170398 0.928503 4.32299 149 125 119
1.46274 -1.03334 4.07481 105 68 51
1.41502 -0.992051 4.28491 76 60 53
-1.58083 -0.923078 4.33233 112 73 50
-0.590443 -0.826503 4.95903 153 148 100
-0.106947 -0.754515 4.92423 51 24 8
1.51982 -0.532186 4.73448 128 93 74
-0.0853723 -0.496307 4.85656 55 23 8
-1.7719 -0.453421 4.60921 61 26 10
-1.79642 -0.442818 4.60706 158 140 116
-1.77313 -0.428845 4.61385 40 10 2
-1.82192 -0.388809 4.59013 143 122 94
-1.79308 0.0374969 3.44617 156 114 116
1.43109 0.000109445 5.14769 70 44 19
0.153874 0.368401 4.02114 94 26 20
0.194653 0.650218 4.04314 85 73 68
-1.88545 -0.240708 3.4908 62 58 68
1.48711 -1.16419 4.14541 108 13 4
1.84132 -0.374768 4.46877 134 103 88
1.85259 -0.338957 4.51964 82 58 43
-0.131221 -0.923397 5.02041 89 78 42
-0.0796529 -0.779777 4.84796 107 93 55
1.41992 -0.490488 4.69858 60 26 14
-0.680227 -1.05962 4.90336 141 126 92
1.88696 -0.601422 4.56953 159 92 85
1.44718 0.316613 4.87639 167 102 88
-0.574996 -0.806533 4.8416 152 140 92
1.3714 -1.0563 4.34372 90 84 64
-1.53051 -0.90196 4.32084 108 67 46
-1.46426 -0.509538 4.47032 103 46 28
-1.45253 -0.867808 4.37169 71 34 17
1.50243 -0.930697 4.15685 122 51 45
-1.97386 0.0384655 3.37178 180 138 128
1.91963 -0.969995 3.87562 124 108 104
1.7988 -1.0767 3.92889 127 77 52
1.74332 -0.0083672 4.75151 84 61 48
-0.475633 -1.35135 5.07265 144 139 92
1.10083 -0.109054 2.96447 110 78 62
1.94775 -1.15765 3.99125 29 14 2
-1.45723 -0.958799 4.5714 64 34 16
-0.561658 -0.804375 4.98372 69 23 2
1.83815 -0.710256 4.59725 92 81 64
2.04881 -1.56658 4.32713 178 130 106
1.46024 -0.980092 4.21492 128 100 89
1.88768 -0.21794 4.61466 179 143 122
2.71018 -0.221621 5.95813 109 84 68
1.94753 -0.966691 3.98916 176 159 152
2.53279 -0.92001 4.12231 81 54 14
1.83574 -0.863662 3.92089 66 44 32
1.87989 -0.852513 3.94363 156 136 128
2.02665 -0.837455 3.88645 221 204 201
1.82576 -0.837169 3.90754 204 180 172
2.44928 -0.868241 4.06586 126 84 74
2.04268 -0.828365 3.88378 190 170 166
1.78377 -0.82377 3.93383 179 157 148
2.42147 -0.812768 4.69384 158 143 112
2.38113 -0.789047 4.77538 71 54 42
2.34755 -0.779016 4.71972 88 72 66
1.85803 -0.618021 4.33861 106 30 14
2.11737 -0.642483 4.55952 143 113 98
1.57583 -0.684223 4.9872 96 58 24
2.02359 -0.607333 4.43769 140 104 89
1.43879 -0.605497 4.66435 92 54 22
1.7569 -0.650091 5.05711 123 104 68
-1.01734 -0.577353 5.44843 161 141 114
1.58476 -0.510405 4.78519 150 98 74
2.17541 -0.456322 4.51088 104 64 49
2.13026 -0.428943 4.41327 42 10 0
2.02856 -0.343783 4.42665 80 64 60
2.3282 -0.343661 4.47975 170 134 116
2.12039 -0.293749 4.51553 128 78 60
2.04983 -0.279507 4.41648 118 77 60
1.41701 -0.115888 5.06143 130 110 102
2.12075 -0.122345 4.51028 110 76 55
2.57774 0.0456364 4.95183 69 34 6
2.67151 0.0791194 4.98137 160 124 101
2.25915 0.18019 5.16012 202 178 164
1.8097 -0.864593 3.91528 154 128 119
1.88418 -0.863383 3.93299 144 124 118
2.00873 -0.874598 4.04767 123 105 100
1.88149 -0.839543 3.95238 116 96 88
2.12835 -0.84479 3.94545 128 52 44
1.83804 -0.811563 3.92443 161 138 128
1.63969 -0.804047 4.19283 171 140 128
1.68848 -0.814597 4.42216 126 86 60
1.65929 -0.768803 4.24742 78 50 21
2.46672 -0.766987 4.79225 124 80 39
1.89824 -0.639622 4.82515 146 126 110
1.8316 -0.585699 4.42339 158 127 108
1.86089 -0.582236 4.70207 131 119 104
1.84094 -0.553117 4.43402 102 42 28
1.69199 -0.318993 5.22323 126 110 90
2.07022 -0.28921 4.49831 128 80 60
1.46105 -0.154607 5.0804 59 36 26
1.57041 -0.135799 4.94431 34 14 0
2.60063 -1.56692 4.82982 108 86 50
1.81546 -1.08426 3.91267 178 143 125
1.8489 -0.979678 3.87175 168 143 136
1.92215 -0.96746 4.00541 88 67 58
-0.637303 -1.11256 4.80191 146 137 92
1.37486 -1.0869 4.66023 97 80 44
1.96185 -0.912786 3.98343 78 64 57
1.86348 -0.895889 3.92502 126 101 92
1.83234 -0.869746 3.92178 66 44 32
2.04479 -0.848816 3.94263 180 162 158
1.63649 -0.754997 4.12762 90 56 34
1.57185 -0.683554 4.96119 127 102 62
2.46881 -0.635063 4.89991 98 86 66
-1.00369 -0.574105 5.40794 162 146 120
1.41598 -0.51994 4.50794 186 155 138
1.46829 -0.511821 4.69339 160 132 116
2.21632 -0.501973 4.47103 33 10 6
2.50671 -0.346911 4.77447 144 106 82
2.39229 -0.197219 4.8894 21 5 0
1.81079 -1.06692 3.8043 167 130 110
1.96617 -1.00621 4.53336 106 80 68
1.83109 -0.890587 3.8924 198 173 162
-1.40184 -0.898442 4.51464 165 110 88
2.21321 -0.793457 4.00028 114 98 84
1.75956 -0.764502 4.16988 162 128 108
2.29067 -0.750644 4.29308 92 77 56
2.14231 -0.774085 4.50771 152 127 100
1.8166 -0.682759 4.70013 109 111 80
2.44536 -0.594627 4.86917 154 139 108
2.32709 -0.554117 4.64968 142 109 94
1.46985 -0.514334 4.74172 158 130 112
2.37061 -0.355456 4.62114 167 134 118
1.45328 -0.33754 4.91854 129 104 80
2.20044 -0.314691 4.50363 140 94 72
1.76251 -0.303652 4.6482 115 96 68
2.09532 -0.185366 4.41261 54 23 12
2.32159 -0.192583 4.64721 40 24 12
2.30375 0.0515902 4.70402 180 154 140
1.84905 0.26311 4.5813 142 108 96
2.37523 0.514388 4.70199 118 95 82
1.40475 -0.999227 4.30592 88 74 62
1.81674 -0.877231 3.83664 192 167 156
1.59027 -0.914813 4.22287 140 76 72
-0.1142 -0.849126 4.9842 83 66 28
1.82788 -0.312991 5.34187 60 40 18
2.3501 0.00853488 4.79755 112 84 70
2.41447 0.360039 4.82124 181 164 158
2.21327 -1.05263 3.85567 14 8 6
-0.460478 -1.14829 4.67066 87 54 38
1.9399 -0.850738 3.90456 132 114 108
2.23285 -0.811464 4.83726 110 88 59
2.37308 -0.751254 4.81956 44 26 18
1.87049 -0.488566 4.53425 163 127 116
2.19931 -0.490244 4.51193 53 26 16
2.47569 -0.256174 4.84256 136 79 52
2.21477 -0.0802036 4.65635 49 20 8
2.28663 0.0309297 4.69764 42 18 6
2.42042 0.413046 4.68573 168 146 132
1.71888 0.479318 4.84145 214 193 186
2.37186 0.48974 4.68328 34 14 9
2.4184 0.524794 4.67626 52 32 18
-0.656135 -1.09379 4.8608 72 54 26
1.55023 -0.887448 3.93275 126 20 17
-1.5276 -0.819423 4.43128 81 38 26
2.27408 -0.831041 4.94397 64 30 10
1.75011 -0.618042 5.12906 64 8 6
-1.82908 -0.391565 4.61251 114 86 57
1.84105 -0.363398 5.24076 100 80 49
2.02255 -0.31055 4.49598 12 7 12
1.81986 -0.194272 4.54892 82 39 20
2.51191 0.170804 4.95166 96 68 43
1.55172 -1.01534 4.10186 106 56 30
-1.72713 -0.977507 4.656 100 62 43
-0.549299 -0.912894 4.58707 170 104 77
1.87895 -0.73948 4.95202 100 100 70
-1.76751 -0.444511 4.60884 46 17 8
2.25985 -0.339582 4.46097 112 76 58
1.84488 -0.157623 4.60573 172 128 106
1.97682 -1.57986 4.2633 233 183 156
2.02835 -1.58841 4.29141 187 136 112
2.20674 -1.48628 4.42494 125 112 104
2.7945 -1.61518 4.8822 118 100 54
2.52656 -1.58972 4.93428 105 85 54
2.74728 -1.44223 4.67275 92 62 28
2.57638 -1.15188 4.15889 161 130 102
2.36099 -1.08344 3.92997 138 106 77
1.85566 -1.02698 3.8374 244 224 218
1.88098 -1.03562 3.87651 142 118 112
1.88826 -1.0226 3.85679 232 210 202
1.95853 -0.992636 3.79718 220 198 192
-0.646026 -1.08215 4.90647 76 34 14
2.01075 -0.991241 4.4075 159 137 132
2.51635 -0.939914 4.15776 174 124 87
1.99184 -0.907664 4.21637 126 110 104
1.93939 -0.841976 3.86778 187 168 164
1.94677 -0.841432 3.86438 190 172 168
-1.61534 -1.04678 5.14705 76 52 40
2.3248 -0.852981 4.03215 111 100 88
2.53259 -0.887864 4.24313 66 26 12
1.94875 -0.820525 3.90303 98 80 76
1.98115 -0.817792 3.91483 90 72 68
1.56772 -0.79019 4.05883 182 139 118
1.73696 -0.941329 5.13037 84 29 11
1.67967 -0.768004 4.19743 170 145 106
1.65487 -0.759942 4.20887 86 65 32
2.2028 -0.772694 4.79617 82 48 31
1.548 -0.667449 5.13069 116 95 61
1.88502 -0.606264 4.54268 123 12 8
1.47929 -0.588642 4.47457 166 128 102
1.80929 -0.535411 4.28049 120 36 21
2.49259 -0.609802 5.04129 142 126 102
2.26997 -0.538784 4.4528 162 129 109
2.20409 -0.47046 4.56976 82 38 20
1.87681 -0.466023 5.33946 94 79 49
1.7211 -0.410114 4.95507 190 194 184
2.41501 -0.377165 4.67291 169 140 120
1.73525 -0.28707 4.54137 176 144 118
2.21888 -0.233427 4.39422 108 82 61
2.54182 -0.240246 4.98615 124 81 58
1.91677 -0.190248 4.65379 72 32 20
2.14562 -0.189118 4.58286 59 24 10
2.15085 -0.160939 4.10423 30 19 6
2.40694 -0.14934 4.83062 52 38 20
2.53939 -0.152226 5.20751 129 112 86
2.24684 -0.116236 4.46469 56 38 26
2.46755 -0.100265 5.13233 64 50 37
1.73587 0.0117203 4.80832 60 46 36
1.96548 0.0486077 5.12818 173 146 133
2.05167 0.0404386 4.82173 134 106 92
1.87707 0.0545451 4.78337 214 192 184
2.36147 0.0680782 4.80757 119 102 93
2.01951 0.0815692 4.77319 26 16 10
1.63123 0.29353 4.44362 131 81 61
2.17607 0.342314 4.32695 148 98 84
2.46815 0.391175 4.75191 136 82 62
2.48064 0.534424 4.82217 50 28 16
2.19166 -1.45588 4.3326 78 63 46
1.49756 -1.22799 4.41944 131 106 80
2.60677 -1.17287 4.24151 122 90 61
1.34347 -1.15234 4.55847 108 104 71
1.95822 -0.982605 3.88158 172 152 146
1.95017 -0.96616 3.80822 192 176 173
1.92522 -0.985843 3.93426 62 50 44
2.29618 -0.978189 3.97708 152 109 84
1.3607 -1.01098 4.43949 128 106 72
1.88085 -0.879899 3.832 118 102 97
2.48669 -0.926574 4.08114 172 120 82
1.93289 -0.901382 4.02018 92 76 72
1.84148 -0.873617 3.95869 62 42 36
1.79849 -0.855955 3.95101 124 97 88
-1.54785 -0.861933 4.18316 127 90 67
2.41425 -0.846434 4.14127 110 81 61
1.6402 -0.780422 4.04179 151 118 98
1.68012 -0.896423 4.85688 84 24 8
1.63636 -0.788124 4.25987 164 139 104
1.40805 -0.615645 4.64348 94 72 32
2.18904 -0.444322 4.7089 54 22 8
2.38323 -0.373518 4.5865 178 149 130
2.28247 -0.350303 4.23608 106 77 60
2.35901 -0.340389 4.53017 90 48 32
2.27856 -0.317222 4.24738 151 110 88
1.84974 -0.357402 5.25458 124 109 82
2.43032 -0.330127 4.6206 127 92 70
1.72645 -0.290765 4.49944 164 146 122
1.88913 -0.258431 5.51088 84 62 33
1.83063 -0.202474 4.59628 90 43 24
2.34887 -0.172019 4.77395 152 130 111
2.44648 -0.169412 5.01336 36 24 10
1.48978 -0.117889 5.11637 92 68 38
1.79987 0.0159734 5.14541 86 70 60
1.92071 0.0404992 4.92691 137 110 95
1.85032 0.0480842 4.65894 160 136 126
2.22326 0.0575534 4.29084 56 40 28
1.34333 -1.46987 4.64465 120 98 55
2.64873 -1.09973 4.36357 120 111 83
1.90949 -0.977936 3.8738 56 43 40
1.39113 -1.07318 4.38018 152 131 116
1.36572 -1.05442 4.59862 95 77 36
2.35386 -0.917843 4.029 118 105 92
1.94449 -0.859559 4.17859 144 122 114
2.48512 -0.860156 4.16114 144 111 98
2.54745 -0.882863 4.44343 154 134 118
1.62799 -0.770183 3.9691 152 118 98
1.69267 -0.865371 5.02461 137 67 39
1.76884 -0.856319 5.01402 102 64 26
1.81398 -0.683869 4.6838 85 92 58
2.13596 -0.587344 4.49128 112 74 49
2.13103 -0.562007 4.45011 106 72 44
1.40785 -0.543673 4.83704 123 107 74
2.39212 -0.3996 4.5471 174 144 123
2.49352 -0.340424 4.80262 143 108 86
1.76379 -0.302904 4.6793 160 144 121
2.47306 -0.323164 4.82695 163 124 103
1.74707 -0.287261 4.66727 50 30 9
2.82967 -0.284432 6.33041 120 91 71
2.48411 -0.187743 5.10585 152 140 118
2.11611 -0.145767 4.02511 148 127 112
2.40462 -0.147264 4.8096 88 73 53
1.4769 0.000984813 5.11487 128 97 76
2.20419 -0.0113539 4.28909 174 152 132
2.34787 0.0197091 4.71929 56 30 16
2.55718 0.154563 4.95451 37 12 0
-0.471345 -1.16505 4.73136 78 49 32
1.98407 -0.990397 4.0869 167 148 144
-0.458204 -1.0977 4.67893 91 52 36
1.58305 -1.35366 6.09918 126 106 76
1.39368 -1.01643 4.63813 96 68 36
1.49358 -0.947234 4.49477 159 132 119
1.65201 -0.860613 5.1861 114 77 36
1.81773 -0.576137 4.26473 122 20 14
1.89062 -0.615189 4.68045 160 130 112
1.68997 -0.618945 5.00358 124 33 28
1.81917 -0.555821 4.62817 98 84 64
2.10664 -0.517327 4.42839 57 28 17
2.26259 -0.525566 4.49869 92 58 46
2.31643 -0.333912 4.39628 68 24 9
1.68826 -0.350179 5.19816 69 44 27
1.92058 -0.00395359 4.59459 183 156 138
2.86784 0.0734916 5.47922 114 86 59
2.36184 0.129059 4.38876 33 10 1
2.30438 0.331479 4.46315 202 186 180
1.70634 0.475786 4.57419 214 190 184
2.41342 -1.12232 4.15634 38 20 10
2.25442 -1.01833 3.7894 25 12 4
1.41618 -0.875185 4.06486 160 134 120
1.50417 -0.944079 4.42692 122 86 66
1.48011 -0.886032 4.17129 167 130 110
1.82588 -0.802661 3.70867 88 69 60
1.43747 -0.809731 3.84993 150 117 102
1.74548 -0.909031 5.02793 162 134 98
-1.3588 -0.77677 4.49324 180 122 102
2.32637 -0.748077 4.41881 112 96 70
1.67207 -0.811886 5.23656 139 86 52
1.67146 -0.617993 4.96217 124 32 22
1.81205 -0.543472 4.31724 100 42 26
1.40487 -0.548645 4.81856 134 116 83
-1.74422 -0.432912 4.47404 161 143 121
1.46793 -0.527096 4.93956 170 138 120
1.64113 -0.390356 5.02469 94 60 41
2.10103 -0.112964 4.6888 106 59 40
2.41655 -0.122872 5.00819 93 74 59
1.42387 -0.0913578 5.26276 43 28 12
2.51615 0.023545 4.9649 136 118 100
1.7059 0.0486989 4.59447 25 17 16
2.22953 0.417051 4.65537 191 162 149
1.95293 0.487833 4.182 152 86 83
2.30853 0.607498 4.91256 194 170 156
1.36281 -1.32886 4.44771 146 124 99
2.25579 -1.02297 3.7737 29 16 8
1.79897 -0.933031 3.69827 160 134 128
1.39348 -1.12422 4.88942 138 128 84
1.43514 -1.06158 4.91583 96 70 33
1.62375 -1.00026 4.93652 158 126 113
1.73658 -0.901671 4.99918 132 97 62
1.54849 -0.536833 3.32931 126 114 94
1.73197 -0.608522 4.32106 147 142 96
1.9248 -0.433788 4.81258 66 46 36
3.30723 -0.551577 7.15555 118 91 69
2.38199 -0.35211 4.57364 109 68 50
2.14393 -0.433492 6.71217 110 93 64
2.4847 -0.332644 4.87693 149 102 80
1.96031 -0.249391 6.64622 114 97 66
1.39675 -0.152032 4.78216 36 10 4
2.10122 -0.109317 3.99677 118 96 81
2.67926 0.0183956 5.99949 161 127 100
2.32683 0.022814 4.41602 136 116 96
1.85851 0.068675 4.33005 31 14 8
1.43734 0.230503 4.93914 148 69 40
2.12927 0.404521 5.17847 152 107 84
2.25376 0.423514 4.73883 182 154 140
2.32685 0.408647 4.62117 162 138 132
2.30326 0.446355 4.5094 36 12 7
1.99635 -1.57471 4.22893 148 94 68
1.98389 -0.903405 3.92936 188 170 168
1.52694 -0.973773 4.61673 142 110 92
1.49024 -0.766619 3.6872 168 139 127
2.47699 -0.925536 4.7938 156 140 130
2.41669 -0.793449 4.65685 154 144 102
1.63409 -0.812439 4.95694 95 46 16
2.20781 -0.755262 4.83854 132 102 89
2.05073 -0.609596 4.28067 79 48 30
2.22627 -0.368425 4.15142 178 152 134
2.36309 -0.242979 4.73886 152 137 114
1.57253 -0.171702 6.08527 36 13 6
2.23415 0.0463253 4.12433 136 117 98
2.36043 0.387425 4.53485 156 132 120
2.22149 -1.53832 4.5378 68 52 38
1.57115 -1.40584 4.99688 138 118 98
1.34952 -0.935876 4.27472 98 74 34
1.70133 -0.904879 5.03422 117 47 28
1.73487 -0.82748 4.90368 101 46 16
-0.0800062 -0.747587 5.13124 94 64 30
1.73707 -0.84374 5.95234 138 133 86
1.67706 -0.49374 3.2334 149 114 102
-1.55558 -0.791037 6.92549 138 132 96
-1.78761 -0.499149 4.54522 124 102 79
2.04163 -0.50038 4.20672 70 39 24
1.90618 -0.408488 4.11791 52 17 10
1.71256 -0.360706 5.0543 157 145 118
2.51491 -0.332236 4.96493 154 108 87
2.17739 -0.258435 4.66753 64 20 6
2.11956 -0.200781 4.58548 44 20 14
2.21571 -0.112995 4.33907 36 22 12
2.10175 -0.0595799 4.28553 56 33 22
2.12242 -0.0279849 4.19244 172 140 112
1.3844 0.245885 5.24176 166 141 126
1.44894 0.256837 5.12004 160 72 41
1.43899 0.344592 4.76348 170 124 118
1.47563 0.380366 4.75763 126 98 94
2.03889 0.364388 4.5856 174 151 142
2.42418 0.438406 5.10029 176 118 96
1.98488 0.554605 4.93422 143 134 124
1.97589 0.587993 4.89463 94 107 92
2.14089 0.544817 4.23375 174 142 116
2.02105 -1.65584 4.12468 171 122 98
1.36993 -1.40267 4.54813 122 91 62
1.86072 -1.02645 3.9186 192 166 158
1.35061 -1.09286 4.38655 154 136 116
1.46114 -0.982236 4.19551 110 82 71
1.85557 -0.919018 3.91355 162 136 128
1.8725 -0.903949 3.97493 108 84 75
-1.57007 -0.957896 4.39791 116 80 54
2.29749 -0.823674 5.06587 168 140 118
1.54766 -0.655913 5.08819 148 118 88
1.69012 -0.346077 5.18215 30 14 0
2.00447 -0.237896 4.3751 116 93 99
2.34495 -0.173348 4.74731 126 110 96
2.25455 0.00409893 4.61833 160 128 104
1.85824 0.126256 4.72224 93 59 35
2.44072 0.515969 4.75303 182 158 144
2.35498 -0.998158 3.86222 154 126 110
1.45841 -0.982269 4.20588 122 94 83
2.43535 -0.593048 4.84585 134 119 91
1.39561 -0.517267 4.76171 65 40 17
1.44436 -0.497755 4.74836 166 136 119
2.18678 -0.42581 4.38751 190 116 82
2.3664 -0.387046 4.41536 59 26 6
2.18209 -0.367506 4.38927 160 88 55
2.37106 -0.330453 4.52725 176 140 118
2.43713 -0.335741 4.63817 159 120 100
1.97826 -0.121521 4.58623 142 116 98
1.34225 -0.0734783 5.15833 142 116 88
1.86604 0.126545 4.76623 98 64 42
1.88758 0.255105 4.64337 144 106 86
2.31097 0.657827 4.76906 180 146 120
2.35167 -0.873307 4.05651 108 103 92
1.60267 -0.832568 4.92397 132 110 64
2.48 -0.778638 4.84183 124 78 41
1.99244 -0.490257 4.36509 132 73 54
2.2474 -0.216732 4.54208 74 39 19
1.64592 0.282593 4.45183 189 140 117
1.63501 0.410229 4.64812 134 98 82
1.78363 -1.05261 3.77345 155 120 101
1.897 -0.972734 3.93405 118 96 88
2.11943 -0.834243 3.91228 116 30 20
1.87276 -0.403369 4.48092 16 12 12
2.18346 -0.360237 4.37486 156 94 60
1.34446 -0.0737004 5.15324 142 116 88
1.87766 -0.940445 3.83884 96 74 65
1.51082 -0.933223 4.16853 120 18 16
1.95529 -0.92637 4.11466 88 74 69
2.155 -0.857095 4.04017 141 74 64
2.44797 -0.854608 4.01512 54 24 12
1.48115 -0.855053 4.10433 159 125 112
2.29453 -0.749724 4.55912 38 22 11
2.20275 -0.768883 4.80398 131 102 78
2.24639 -0.461343 4.1986 178 149 128
1.86367 -0.405446 4.33233 30 22 22
1.48249 -0.0248629 5.08076 100 62 34
1.89109 0.0306639 4.55469 149 122 106
2.32037 0.0821485 4.82498 32 15 2
1.89721 0.133782 4.75119 156 122 102
2.61726 0.139614 5.16439 32 12 3
1.74907 0.491402 5.00855 204 183 178
2.14403 -0.856105 4.00618 148 88 78
1.80957 -0.821177 3.93897 110 85 76
-0.882613 -0.605558 5.12587 156 145 118
2.23806 -0.0442959 4.7009 41 18 10
1.72702 0.356831 4.64881 192 170 162
1.96099 0.430745 4.58297 130 85 69
1.97101 -1.7605 4.19126 142 122 72
2.03232 -1.71388 4.10901 107 72 32
2.1108 -1.63595 4.37402 123 102 59
1.99439 -1.48549 4.16284 72 48 28
2.09181 -1.41678 4.1232 30 19 8
1.89443 -0.876378 3.80652 120 104 98
1.51332 -0.862376 3.93886 68 12 10
1.90139 -0.538081 4.25174 176 88 62
2.2512 -0.534244 4.67213 20 10 6
2.00388 -0.425729 4.47389 22 8 7
