ply
format ascii 1.0
element vertex 808
property float x
property float y
property float z
property uchar red
property uchar green
property uchar blue
end_header
0.404078 0.114268 2.84511 0 255 0
0.376832 0.118664 2.84183 0 255 0
0.351613 0.121359 2.84853 0 255 0
0.323241 0.119665 2.85939 0 255 0
0.33978 0.0933969 2.84892 0 255 0
0.37389 0.094702 2.83559 0 255 0
0.375666 0.135775 2.84552 0 255 0
0.350953 0.133054 2.8491 0 255 0
0.32479 0.133731 2.85975 0 255 0
0.3185 0.109318 2.86168 0 255 0
0.409964 0.113381 2.84704 0 255 0
0.405367 0.0970362 2.9252 103 56 38
0.405486 0.0970136 2.92523 100 51 29
0.412032 0.0987292 2.92532 56 19 4
0.409148 0.0998041 2.92629 146 102 88
0.410537 0.101005 2.92659 130 86 70
0.412789 0.100842 2.92662 54 14 8
0.410851 0.102843 2.92689 78 32 16
0.404207 0.106859 2.92962 168 120 100
0.409666 0.10693 2.92651 155 110 96
0.412268 0.107877 2.92588 103 62 46
0.412196 0.108236 2.92588 144 102 88
0.411408 0.110587 2.92589 106 60 41
0.410673 0.11097 2.92596 115 70 50
0.409673 0.113137 2.92631 136 94 89
0.410569 0.112983 2.92656 57 18 12
0.411064 0.112941 2.92608 63 21 14
0.41127 0.112963 2.926 78 35 24
0.410877 0.113005 2.9261 70 30 18
0.411136 0.113309 2.92614 144 102 98
0.412442 0.113464 2.92602 137 98 88
0.409506 0.113783 2.92658 61 22 9
0.412842 0.113435 2.92626 71 34 27
0.413083 0.113452 2.9263 69 30 20
0.411699 0.113668 2.92656 52 12 4
0.411105 0.113841 2.92645 139 100 90
0.41405 0.1135 2.92624 66 29 17
0.413065 0.113738 2.92623 136 98 86
0.413965 0.113982 2.9264 38 4 2
0.405842 0.114926 2.9286 74 32 22
0.412237 0.114327 2.92644 130 90 83
0.405483 0.115214 2.92888 69 26 16
0.408985 0.114996 2.9272 142 106 105
0.411893 0.114809 2.92655 47 6 0
0.405432 0.1155 2.92896 165 121 104
0.407027 0.115357 2.92879 156 117 108
0.411512 0.115003 2.92667 140 97 88
0.413544 0.114792 2.92645 44 8 3
0.411767 0.11508 2.92656 42 4 2
0.408086 0.115496 2.92771 163 122 114
0.410573 0.115293 2.92668 90 46 35
0.409243 0.115848 2.92719 58 20 15
0.414178 0.115602 2.92672 44 8 2
0.411835 0.115871 2.92677 138 99 88
0.412374 0.116668 2.92722 140 103 89
0.404259 0.118167 2.93067 62 14 4
0.413363 0.117442 2.92723 67 30 18
0.403904 0.119021 2.93124 83 36 22
0.408017 0.118516 2.92854 83 41 26
0.404901 0.119072 2.93046 168 122 106
0.409863 0.11844 2.92828 160 116 102
0.409192 0.118725 2.92797 95 52 32
0.415362 0.118041 2.92749 110 75 66
0.404393 0.119526 2.93104 108 64 42
0.415225 0.118325 2.92764 54 20 12
0.405014 0.119611 2.93056 150 104 92
0.410309 0.119016 2.92775 70 28 8
0.414295 0.118596 2.92753 68 30 17
0.40283 0.120173 2.93329 178 131 112
0.405294 0.119921 2.93024 73 28 17
0.402815 0.12045 2.93317 164 118 102
0.409994 0.119493 2.92798 92 48 31
0.410718 0.119405 2.9278 95 54 32
0.408396 0.119742 2.92862 175 134 120
0.412316 0.119296 2.92783 78 38 18
0.41506 0.119295 2.92777 59 23 18
0.4126 0.119715 2.92768 60 22 10
0.405421 0.120815 2.93046 160 117 108
0.403701 0.121165 2.93236 68 22 6
0.40389 0.121149 2.9325 161 115 100
0.405007 0.121141 2.93081 126 82 74
0.410416 0.120745 2.92822 100 56 56
0.414064 0.120933 2.92834 118 84 71
0.408719 0.121942 2.92921 75 35 26
0.409907 0.121792 2.92857 55 12 2
0.40218 0.123396 2.93577 150 102 88
0.414072 0.121706 2.92821 76 41 30
0.412656 0.122049 2.9284 56 18 10
0.402481 0.123953 2.9352 78 32 16
0.41 0.122699 2.92891 52 14 4
0.416029 0.122024 2.92877 33 6 5
0.405288 0.123698 2.93163 130 83 82
0.414049 0.122413 2.92848 108 72 68
0.352014 0.131262 2.94805 72 54 20
0.402354 0.124696 2.93466 128 81 69
0.412681 0.122825 2.9285 47 8 2
0.405315 0.124118 2.93194 168 122 110
0.413968 0.122838 2.92854 129 94 86
0.409661 0.123618 2.92934 60 22 11
0.402704 0.125095 2.93512 73 27 11
0.352116 0.132033 2.94798 64 46 12
0.404068 0.124861 2.93335 76 28 19
0.405337 0.124741 2.93202 164 119 104
0.415352 0.123605 2.92904 45 9 0
0.408773 0.124361 2.92997 75 33 20
0.40263 0.125806 2.93552 78 31 15
0.343906 0.133278 2.94616 84 78 72
0.405496 0.12518 2.93217 70 26 12
0.403892 0.126053 2.93387 59 18 8
0.348311 0.133469 2.94492 12 6 2
0.411616 0.124832 2.92932 142 104 90
0.354604 0.13348 2.94865 106 88 72
0.40283 0.126769 2.93553 172 124 108
0.408446 0.125489 2.93031 90 50 44
0.403311 0.127073 2.93518 116 68 50
0.409703 0.125715 2.93021 90 50 38
0.404543 0.126799 2.93357 170 123 106
0.402957 0.127259 2.9351 76 28 11
0.409976 0.125833 2.93009 62 24 16
0.412839 0.125658 2.92938 144 107 97
0.413857 0.125526 2.92956 55 18 11
0.413988 0.125547 2.92938 137 101 89
0.408438 0.126355 2.93068 84 44 29
0.408807 0.126411 2.93048 126 86 72
0.40984 0.126239 2.93014 64 25 18
0.410399 0.126073 2.93012 154 114 106
0.410251 0.12624 2.93023 56 18 8
0.403438 0.127978 2.93524 73 25 10
0.415051 0.125909 2.92974 134 99 86
0.390043 0.13104 2.9459 144 116 116
0.403958 0.12788 2.93449 175 128 118
0.410007 0.126564 2.93001 46 7 2
0.412566 0.126163 2.92974 66 28 17
0.404567 0.127769 2.9338 75 30 16
0.411235 0.126491 2.92955 146 106 96
0.405237 0.127839 2.93321 68 26 18
0.413402 0.126332 2.92967 50 14 4
0.415329 0.126133 2.92975 59 24 14
0.411008 0.12682 2.9297 74 34 20
0.414902 0.126275 2.92968 135 100 84
0.412795 0.126727 2.92981 70 34 24
0.408577 0.127491 2.93103 58 21 14
0.403888 0.128694 2.93486 72 26 16
0.40885 0.127558 2.93093 160 125 117
0.408437 0.127946 2.93123 166 128 118
0.411097 0.127572 2.93033 74 36 26
0.404544 0.128984 2.934 172 128 112
0.410508 0.127792 2.93051 144 106 96
0.408645 0.128175 2.93119 86 50 40
0.409179 0.128216 2.93123 71 36 28
0.404763 0.129335 2.93387 168 125 108
0.410659 0.12843 2.9306 154 116 106
0.381467 0.133644 2.9406 92 62 66
0.413162 0.128751 2.93042 48 12 6
0.414179 0.129167 2.93054 90 53 48
0.414631 0.129178 2.93051 78 40 30
0.409331 0.130157 2.93126 82 44 28
0.408522 0.13046 2.9319 164 129 112
0.409819 0.130413 2.93139 63 23 18
0.408658 0.130747 2.93225 82 46 32
0.411248 0.130695 2.93146 70 32 24
0.412255 0.130371 2.93074 72 34 25
0.409785 0.130996 2.93185 54 16 8
0.408416 0.131282 2.93217 65 28 18
0.410344 0.131463 2.9317 85 46 33
0.413072 0.131215 2.93099 44 6 4
0.41279 0.131375 2.93109 140 103 92
0.410728 0.131731 2.93145 86 48 30
0.410526 0.131906 2.93176 144 106 90
0.410807 0.132004 2.9316 68 30 14
0.409707 0.13211 2.93187 62 24 12
0.411385 0.131914 2.93149 65 28 12
0.410192 0.132248 2.93195 154 116 102
0.409334 0.132557 2.93227 60 21 8
0.413442 0.132047 2.93204 65 26 10
0.410449 0.13256 2.93209 60 20 8
0.40948 0.135236 2.93306 135 89 68
0.410314 0.135823 2.93299 110 64 44
0.410144 0.137576 2.93364 160 112 95
0.40485 0.141444 2.93845 172 126 110
0.413093 0.144286 2.93499 64 22 12
0.409671 0.0987597 2.9253 76 33 17
0.409099 0.0998468 2.92636 150 106 92
0.412729 0.100361 2.92649 115 76 66
0.409715 0.102161 2.92691 130 84 62
0.410743 0.102814 2.92675 90 44 28
0.411955 0.106092 2.92638 131 89 77
0.40986 0.10801 2.92622 152 108 94
0.410372 0.112496 2.926 122 79 59
0.40981 0.112835 2.92627 91 49 38
0.410396 0.113014 2.92646 64 24 14
0.409215 0.113219 2.92659 154 115 104
0.411772 0.113079 2.92659 77 34 26
0.412252 0.11334 2.92612 79 39 30
0.411647 0.113353 2.92654 52 11 6
0.410707 0.114023 2.9264 74 34 24
0.41388 0.114027 2.92633 88 50 42
0.411367 0.11505 2.92667 109 66 58
0.411762 0.114985 2.92649 61 20 10
0.410601 0.115664 2.92672 102 58 46
0.408408 0.115803 2.92763 76 38 30
0.413578 0.115513 2.92661 64 28 20
0.412764 0.115764 2.92668 120 81 78
0.413513 0.115794 2.92674 70 34 27
0.411493 0.1163 2.92684 60 20 10
0.412646 0.116578 2.92687 69 34 24
0.414399 0.116403 2.92685 117 81 74
0.412921 0.116863 2.92686 52 18 11
0.402881 0.118981 2.93257 72 24 10
0.414332 0.117523 2.92731 50 12 4
0.403879 0.119073 2.93143 95 47 34
0.408038 0.118431 2.92838 116 74 59
0.408267 0.118468 2.92817 158 114 100
0.403658 0.119425 2.93187 176 129 114
0.407818 0.11892 2.92843 126 82 62
0.408468 0.118851 2.92822 108 64 46
0.404399 0.119479 2.93105 114 70 48
0.406499 0.119375 2.92935 117 76 58
0.405039 0.119742 2.93069 175 129 114
0.405387 0.119648 2.93021 78 32 20
0.415441 0.118573 2.92764 112 78 68
0.403714 0.120156 2.93204 64 18 4
0.409964 0.119485 2.92792 92 48 31
0.41214 0.119259 2.92756 84 42 22
0.405163 0.120357 2.93057 107 62 45
0.413656 0.119309 2.92758 82 44 33
0.41429 0.119487 2.92797 66 28 18
0.405232 0.121207 2.9308 110 65 58
0.4165 0.119913 2.9283 36 5 1
0.413425 0.121211 2.92826 109 70 65
0.412716 0.121665 2.92853 72 33 22
0.4148 0.121741 2.92846 88 54 38
0.413987 0.121854 2.92809 127 92 80
0.405365 0.123261 2.93143 90 44 36
0.409999 0.122683 2.9289 68 30 18
0.410283 0.122877 2.9289 91 52 42
0.352032 0.131232 2.94819 72 54 20
0.410544 0.123136 2.92901 86 46 38
0.414141 0.122628 2.92844 46 11 9
0.351877 0.13159 2.94795 61 46 7
0.411465 0.123122 2.92884 61 23 10
0.40317 0.124914 2.93467 182 135 119
0.408661 0.124042 2.92979 86 44 36
0.404333 0.125165 2.93324 76 28 15
0.408715 0.124272 2.92993 72 28 18
0.35588 0.132298 2.94895 42 36 4
0.412795 0.123905 2.92889 88 50 34
0.412866 0.124254 2.92903 60 21 9
0.40391 0.126047 2.93392 116 72 47
0.412304 0.124557 2.92916 108 68 57
0.413828 0.124414 2.929 56 18 8
0.412219 0.124684 2.9295 143 103 92
0.412627 0.124626 2.92912 126 88 79
0.403383 0.126453 2.93529 162 114 106
0.414338 0.124524 2.92915 75 40 30
0.415178 0.124458 2.92889 71 35 21
0.408582 0.125428 2.93039 92 52 43
0.411553 0.125325 2.92938 129 92 78
0.409597 0.125692 2.92995 113 74 60
0.408848 0.125937 2.9303 77 36 26
0.409666 0.126024 2.93001 146 106 94
0.40513 0.127026 2.93307 155 110 92
0.411144 0.125839 2.92984 66 28 21
0.404278 0.127447 2.93401 171 124 110
0.403918 0.127552 2.93417 67 21 10
0.410745 0.126327 2.9299 88 50 41
0.415333 0.125735 2.9297 48 14 3
0.41119 0.126405 2.92986 148 109 100
0.409689 0.126809 2.93045 103 63 47
0.410455 0.126735 2.93012 143 103 90
0.405266 0.127862 2.93313 67 25 17
0.411403 0.126793 2.92995 82 42 30
0.415644 0.126553 2.9298 57 24 17
0.408606 0.128104 2.93115 122 84 74
0.411755 0.127574 2.93006 73 36 26
0.409435 0.128042 2.93061 118 78 70
0.415531 0.127302 2.92997 58 24 8
0.404374 0.129575 2.93446 126 82 63
0.411159 0.128338 2.93081 56 18 8
0.411941 0.128232 2.93031 90 52 38
0.414784 0.128093 2.93009 89 52 40
0.414608 0.128358 2.93023 96 58 50
0.415362 0.128435 2.93031 46 12 5
0.414203 0.128804 2.93042 73 36 28
0.415868 0.129004 2.93046 62 28 20
0.4131 0.130115 2.93116 52 14 6
0.413601 0.130156 2.93074 62 26 13
0.41501 0.130024 2.93069 62 26 14
0.410383 0.131878 2.93172 148 110 94
0.412184 0.131649 2.93127 144 108 92
0.411349 0.131862 2.93143 88 50 32
0.409956 0.13246 2.93193 67 28 14
0.409481 0.135199 2.93312 140 94 74
0.410301 0.135826 2.93294 120 74 55
0.41009 0.137562 2.93363 156 108 92
0.411351 0.141444 2.93453 142 94 80
0.409671 0.0987393 2.92535 77 34 18
0.412412 0.100215 2.9262 104 62 55
0.412006 0.100469 2.92651 83 42 38
0.410514 0.101035 2.92666 129 84 70
0.409766 0.102148 2.92697 130 84 62
0.412666 0.107325 2.92595 124 84 72
0.412139 0.108248 2.92583 142 100 86
0.410178 0.109393 2.92586 138 88 74
0.411233 0.111329 2.92588 121 76 55
0.403855 0.112028 2.92951 170 118 98
0.414143 0.111307 2.92582 95 57 36
0.40318 0.113427 2.93071 176 124 101
0.41109 0.114703 2.92648 112 68 54
0.40534 0.115614 2.92901 168 124 106
0.405104 0.116129 2.92878 122 80 62
0.410662 0.115692 2.9268 106 64 51
0.410833 0.115944 2.92688 62 23 12
0.414252 0.115661 2.92665 46 8 6
0.413993 0.115919 2.92675 120 84 70
0.412821 0.116697 2.92695 54 20 12
0.414144 0.116959 2.92715 116 80 73
0.413711 0.117079 2.92716 56 18 12
0.41323 0.117391 2.927 49 12 10
0.409014 0.118324 2.92861 122 78 66
0.402711 0.119844 2.9334 98 52 33
0.404982 0.11951 2.93068 78 34 23
0.410308 0.118985 2.92773 86 42 22
0.403643 0.120072 2.93208 73 26 12
0.416064 0.118569 2.92806 42 10 6
0.410701 0.119345 2.92779 117 76 54
0.411456 0.119502 2.92784 106 64 44
0.413369 0.119627 2.9279 116 77 62
0.412579 0.119706 2.92768 84 46 34
0.412664 0.12005 2.92805 111 74 60
0.415353 0.119809 2.92794 114 80 70
0.413888 0.120021 2.92785 68 30 14
0.413374 0.121199 2.92828 106 68 62
0.411521 0.121783 2.92903 53 15 3
0.41264 0.121961 2.92831 80 42 32
0.405799 0.123914 2.93143 70 26 20
0.410543 0.123436 2.92914 55 16 10
0.412779 0.123143 2.92874 60 21 10
0.405871 0.124409 2.93175 174 130 114
0.35622 0.131904 2.94873 30 34 8
0.411661 0.124121 2.92921 72 30 16
0.414366 0.123662 2.92886 58 24 12
0.415313 0.123575 2.92899 50 14 6
0.412834 0.123997 2.92894 52 13 4
0.40911 0.125162 2.93013 111 71 56
0.410685 0.124962 2.92955 122 83 74
0.41126 0.124872 2.92943 128 90 73
0.413571 0.124576 2.92925 140 102 88
0.409784 0.125307 2.92992 158 120 104
0.411953 0.125264 2.92953 148 112 96
0.409271 0.125984 2.93029 66 24 16
0.410383 0.126213 2.92969 112 74 64
0.41329 0.125625 2.92958 51 16 8
0.405108 0.127003 2.93303 144 100 82
0.408505 0.126327 2.93072 86 45 30
0.412627 0.125967 2.92983 51 14 8
0.410518 0.126728 2.93009 143 103 90
0.410913 0.126788 2.93001 78 37 26
0.410147 0.12747 2.93032 116 77 62
0.410403 0.127537 2.93043 109 71 60
0.408625 0.12807 2.93109 96 58 51
0.409915 0.128045 2.9306 146 108 100
0.411725 0.127988 2.93054 147 109 98
0.412179 0.128069 2.93023 96 59 51
0.410305 0.128352 2.93019 108 70 60
0.41481 0.128147 2.93024 91 54 42
0.384609 0.134337 2.94338 124 100 102
0.412872 0.129052 2.93045 71 33 22
0.415622 0.129596 2.9307 55 21 12
0.411843 0.130623 2.931 48 10 2
0.414367 0.13087 2.9311 140 105 88
0.41296 0.131105 2.93104 48 11 2
0.412903 0.131491 2.93117 141 104 92
0.40951 0.132224 2.93233 146 108 96
0.410288 0.132003 2.93197 150 112 98
0.4114 0.131827 2.93149 104 66 49
0.413889 0.131579 2.93116 68 32 19
0.409241 0.132442 2.9323 64 26 11
0.414452 0.131632 2.93111 66 29 19
0.413161 0.131894 2.93126 100 61 44
0.416144 0.134004 2.93213 111 73 55
0.412037 0.135251 2.93223 124 82 60
0.410062 0.137584 2.93372 156 108 92
0.410941 0.138627 2.93369 134 85 71
0.411711 0.141134 2.93432 142 94 80
0.411454 0.141463 2.93454 147 100 84
0.41309 0.1443 2.93502 70 26 18
0.410415 0.106743 2.9263 144 100 85
0.411462 0.106687 2.9263 144 101 86
0.412698 0.107384 2.92596 132 92 78
0.409785 0.107952 2.92622 152 107 92
0.411533 0.10807 2.92597 114 72 54
0.412155 0.108263 2.92587 144 102 88
0.414183 0.111273 2.9259 100 62 40
0.411158 0.113002 2.92622 65 24 16
0.412508 0.112833 2.92603 94 52 34
0.409935 0.113186 2.92644 151 110 100
0.409467 0.11366 2.9265 72 33 18
0.410194 0.113815 2.92633 96 58 41
0.411086 0.113901 2.92619 132 92 81
0.412731 0.114057 2.92613 136 96 79
0.412837 0.114458 2.92654 90 51 34
0.411787 0.114903 2.92651 52 11 2
0.409387 0.115745 2.92707 60 20 8
0.412405 0.115781 2.92674 65 28 20
0.413666 0.115706 2.92689 50 13 8
0.411782 0.116214 2.9269 57 16 9
0.414096 0.117081 2.92711 122 86 78
0.414296 0.117557 2.92726 46 10 3
0.414908 0.118063 2.92738 40 5 0
0.408547 0.119152 2.92859 96 53 32
0.414227 0.118571 2.92761 82 43 30
0.415471 0.118619 2.92769 111 76 70
0.411842 0.119626 2.92725 82 43 36
0.4156 0.120219 2.92835 45 14 11
0.381143 0.129702 2.96717 160 136 122
0.41585 0.122031 2.92869 47 12 6
0.408724 0.123075 2.92973 98 56 48
0.410417 0.123314 2.92903 60 20 14
0.352009 0.131615 2.94801 25 13 0
0.402777 0.124978 2.93524 132 84 71
0.408701 0.124149 2.92986 71 28 21
0.415958 0.123501 2.92898 78 44 31
0.411694 0.124115 2.9291 62 20 6
0.403531 0.126352 2.93501 134 87 76
0.413363 0.124544 2.9293 138 100 85
0.415072 0.12448 2.92897 87 51 42
0.415999 0.124434 2.92928 48 14 8
0.402981 0.127241 2.93545 68 20 10
0.415296 0.125785 2.92967 62 28 16
0.410651 0.126466 2.92987 102 62 53
0.414793 0.125938 2.92956 138 102 87
0.414732 0.12654 2.92982 64 28 13
0.407705 0.129921 2.9325 140 108 97
0.410942 0.13038 2.93115 98 60 50
0.414995 0.130105 2.93067 70 34 22
0.41127 0.130887 2.93164 144 107 94
0.412279 0.130811 2.93103 148 110 102
0.414455 0.130745 2.93106 138 104 84
0.411919 0.131372 2.93123 50 12 2
0.411451 0.131953 2.93158 65 27 11
0.412599 0.131935 2.93116 86 48 34
0.414223 0.134242 2.93202 104 66 46
0.410354 0.135879 2.93303 112 66 46
0.410097 0.137629 2.93394 154 106 90
0.406764 0.142952 2.93727 69 32 23
0.409748 0.102201 2.92685 128 81 60
0.410256 0.104082 2.92679 127 81 61
0.408147 0.10656 2.92704 164 117 101
0.412046 0.107097 2.92601 95 54 43
0.411901 0.107077 2.9261 110 69 54
0.414329 0.108249 2.9259 118 81 66
0.413997 0.109204 2.92561 90 50 32
0.412179 0.109884 2.92569 138 92 75
0.409189 0.112863 2.92639 82 40 28
0.412448 0.11282 2.92597 106 64 46
0.413972 0.113471 2.92615 108 70 52
0.410764 0.113967 2.92653 130 90 80
0.412083 0.11402 2.92627 50 11 4
0.412889 0.114029 2.92623 130 91 73
0.413696 0.114198 2.92635 114 74 64
0.412677 0.11443 2.92648 55 16 10
0.411029 0.114668 2.92644 87 44 30
0.413543 0.114591 2.92638 116 74 64
0.410628 0.115762 2.92661 77 36 22
0.414291 0.115744 2.92664 48 11 6
0.411621 0.116151 2.92685 56 14 8
0.403999 0.118188 2.93099 76 28 14
0.413479 0.11724 2.92713 113 74 68
0.414078 0.118518 2.92751 131 91 76
0.412156 0.119293 2.92743 96 54 34
0.413927 0.120471 2.92812 132 96 80
0.381884 0.128589 2.96692 102 88 80
0.413112 0.121325 2.92814 139 102 90
0.409843 0.122969 2.92883 85 46 37
0.352126 0.131509 2.94793 24 12 4
0.356007 0.131842 2.94887 40 42 18
0.403375 0.125284 2.93487 175 130 106
0.412709 0.124088 2.92892 80 41 26
0.345807 0.133657 2.94464 124 106 92
0.354351 0.133415 2.94837 103 92 80
0.408557 0.125322 2.93017 90 50 42
0.412844 0.124652 2.929 139 100 89
0.357833 0.133631 2.94992 64 42 12
0.402942 0.127095 2.93535 104 56 42
0.410443 0.125593 2.92957 65 27 18
0.409708 0.126291 2.92981 156 115 103
0.403829 0.128267 2.93511 96 48 36
0.414572 0.126505 2.92949 72 36 21
0.407892 0.127606 2.9313 88 50 40
0.41273 0.126767 2.92971 90 52 40
0.410165 0.127529 2.93037 84 47 34
0.404248 0.128932 2.93444 172 126 104
0.412089 0.1276 2.93016 100 62 52
0.413778 0.127326 2.93023 92 56 40
0.414405 0.129349 2.9306 62 26 18
0.411429 0.130241 2.93095 78 40 27
0.412988 0.131064 2.93104 44 6 0
0.41515 0.130763 2.93095 66 29 22
0.384372 0.137163 2.94472 132 114 114
0.409088 0.132472 2.93225 96 58 45
0.412613 0.131979 2.93132 66 28 15
0.414071 0.134327 2.93204 116 78 58
0.412009 0.135288 2.93236 124 81 60
0.413559 0.13604 2.93256 116 70 52
0.411521 0.141387 2.93451 144 98 82
0.409987 0.100023 2.92641 142 98 80
0.410727 0.1026 2.92681 112 66 49
0.409438 0.107896 2.92636 152 108 89
0.411326 0.108644 2.92576 148 103 86
0.412159 0.109895 2.9257 138 92 75
0.414057 0.110307 2.92587 106 60 42
0.408166 0.111162 2.92715 170 135 124
0.409238 0.112908 2.92635 66 24 14
0.411116 0.113032 2.92601 64 20 12
0.409354 0.113585 2.9264 153 114 100
0.411092 0.113609 2.92636 52 13 8
0.41295 0.113528 2.92638 53 14 5
0.41284 0.114059 2.92624 129 90 72
0.41243 0.114333 2.92637 53 14 8
0.411589 0.114851 2.92671 60 18 10
0.41224 0.114809 2.92642 138 98 81
0.4081 0.115801 2.9272 76 36 31
0.405996 0.116747 2.92905 170 127 114
0.411431 0.116112 2.92678 57 15 8
0.413556 0.116158 2.92725 134 96 82
0.412104 0.116491 2.92709 141 102 88
0.412702 0.1165 2.92711 100 63 50
0.415095 0.12042 2.92958 70 35 36
0.413059 0.121288 2.92813 126 88 78
0.41135 0.122957 2.92875 96 58 44
0.392871 0.127952 2.95059 175 168 165
0.40862 0.124118 2.92989 102 59 48
0.410026 0.126402 2.93023 112 74 62
0.411174 0.1312 2.93113 154 118 94
0.410405 0.13207 2.93176 136 98 81
0.412017 0.135443 2.93256 120 76 56
0.409804 0.137596 2.93385 162 114 97
0.409108 0.100433 2.927 106 62 50
0.411273 0.1154 2.92653 148 106 86
0.404726 0.117202 2.93103 128 82 66
0.412839 0.120147 2.92826 76 38 31
0.413261 0.120841 2.92816 58 20 18
0.40995 0.123188 2.92922 64 24 16
0.392771 0.127772 2.95019 175 168 166
0.41168 0.124111 2.92927 128 88 69
0.412153 0.125022 2.92912 85 46 40
0.408051 0.127656 2.93137 74 35 27
0.415193 0.130733 2.93102 58 22 19
0.414005 0.134364 2.93187 115 76 56
0.411793 0.135423 2.93238 132 89 68
0.409338 0.112826 2.92648 86 45 32
0.352518 0.131176 2.9452 78 60 26
0.410743 0.12416 2.92913 154 116 100
0.406271 0.127427 2.93206 176 136 126
0.409667 0.137363 2.93407 155 107 90
0.411123 0.114684 2.92627 99 59 48
0.351852 0.13142 2.94807 80 60 12
0.411053 0.125436 2.9296 106 68 64
0.411068 0.128032 2.93047 141 104 96
0.409264 0.132165 2.93215 144 106 94
0.408228 0.0996143 2.92659 94 48 30
0.411576 0.125767 2.92974 142 106 92
0.408926 0.126569 2.93014 85 48 32
0.410321 0.130463 2.93129 68 32 20
0.410809 0.130916 2.9315 78 41 30
0.410601 0.13158 2.9314 80 44 28
0.4099 0.132026 2.93194 140 102 92
0.409221 0.12649 2.92946 92 54 40
0.411194 0.113418 2.9268 94 56 52
0.412096 0.11413 2.92643 52 16 6
0.414145 0.119304 2.92818 64 30 19
0.414395 0.124449 2.92853 117 81 67
0.369294 0.137484 2.93189 90 76 74
0.415602 0.134944 2.93208 100 62 44
0.404146 0.124935 2.93325 88 44 29
0.411032 0.1262 2.92967 138 100 90
0.416094 0.142828 2.93451 120 80 70
0.41311 0.116591 2.92695 106 71 57
0.412978 0.123108 2.92888 101 64 49
0.412031 0.128234 2.93015 128 92 80
0.412496 0.131667 2.93139 122 86 72
0.41001 0.126391 2.93016 78 40 29
0.410765 0.130458 2.93111 97 60 48
0.412271 0.113792 2.92636 58 22 18
0.406631 0.11972 2.92939 142 102 94
0.408001 0.118322 2.92825 71 32 22
0.407976 0.120667 2.92906 102 70 64
0.408677 0.124152 2.92988 91 52 38
0.408526 0.123035 2.92944 94 57 48
0.408846 0.114909 2.92699 74 35 30
0.404792 0.117407 2.93001 62 17 6
0.412644 0.129826 2.93082 96 58 44
0.370325 0.136509 2.93238 72 58 51
0.364268 0.139399 2.92877 122 99 102
0.40371 0.0970611 2.92916 144 94 74
0.404638 0.0980858 2.92886 117 68 44
0.404176 0.0980543 2.92953 115 67 44
0.404879 0.0992251 2.92953 122 74 50
0.405076 0.0994641 2.9293 110 62 38
0.409861 0.100341 2.92657 128 86 74
0.410647 0.100401 2.92628 116 74 58
0.408472 0.100518 2.92684 76 28 11
0.410627 0.100992 2.92666 122 79 63
0.412725 0.102834 2.92675 85 46 26
0.404835 0.1025 2.93044 156 106 84
0.40424 0.10239 2.93155 162 112 93
0.403568 0.105309 2.93106 158 111 93
0.406643 0.106661 2.92779 158 114 96
0.40311 0.106934 2.92955 161 114 93
0.408361 0.11121 2.92621 156 112 92
0.406595 0.116656 2.92859 59 20 12
0.403408 0.117021 2.93086 89 46 30
0.406302 0.113221 2.928 126 90 74
0.406868 0.11381 2.92778 82 47 42
0.404026 0.11768 2.93108 164 120 102
0.407695 0.131428 2.93267 140 102 92
0.405912 0.142603 2.93703 88 44 41
0.405757 0.115231 2.92836 142 100 92
0.381401 0.127482 2.96758 124 107 98
0.405113 0.099345 2.92938 110 62 41
0.401027 0.114008 2.93461 160 112 92
0.404978 0.117089 2.93003 130 90 78
0.417433 0.121145 2.92895 74 49 42
0.381928 0.128581 2.96714 120 106 98
0.340382 0.130814 2.94684 143 140 134
0.348413 0.133432 2.94487 38 25 18
0.344992 0.133417 2.94516 76 60 52
0.408086 0.0996236 2.92635 80 34 16
0.402568 0.106624 2.93181 138 92 76
0.403738 0.119313 2.93361 66 21 10
0.404694 0.122593 2.93199 150 112 99
0.403949 0.097403 2.92467 111 66 46
0.411689 0.100357 2.92614 37 4 0
0.35751 0.139982 2.92729 164 150 150
0.412993 0.100327 2.92865 109 74 54
0.405332 0.119143 2.93064 131 98 88
0.401182 0.135975 2.94324 136 88 71
0.402078 0.105577 2.93367 119 76 62
0.405851 0.113282 2.92755 90 52 34
0.358044 0.140303 2.92708 125 95 100
0.352413 0.138648 2.93345 71 48 52
0.407323 0.113273 2.92747 47 8 2
0.354694 0.139321 2.93142 146 119 122
0.402097 0.138401 2.94083 130 82 72
0.35987 0.147139 2.94354 134 120 123
0.40328 0.0980014 2.93191 93 51 33
0.40179 0.105782 2.93332 122 78 66
0.401018 0.107118 2.9355 133 88 73
0.40052 0.110805 2.93839 132 90 78
0.381319 0.123987 2.9677 68 44 32
0.391039 0.13172 2.94744 73 54 51
0.39042 0.132425 2.94777 54 30 30
0.385514 0.131868 2.94285 72 51 46
0.401017 0.137596 2.94797 127 83 68
0.40105 0.137647 2.94433 138 92 77
0.384296 0.133508 2.95666 118 107 105
0.381727 0.133299 2.94008 55 32 28
0.401133 0.138735 2.94664 128 83 70
0.404018 0.140063 2.94077 137 97 87
0.364475 0.139354 2.9291 96 78 78
0.364266 0.140839 2.92972 128 110 112
0.352592 0.138613 2.93309 86 50 56
0.354439 0.138927 2.93002 107 82 84
0.353275 0.139054 2.93228 184 160 163
0.353368 0.139224 2.9319 109 74 81
0.357311 0.14049 2.92818 136 107 112
0.357456 0.140581 2.92768 174 137 143
0.35067 0.139659 2.9371 149 116 122
0.35294 0.140006 2.93397 180 160 162
0.350853 0.13969 2.93651 114 88 94
0.350182 0.139921 2.93847 93 61 68
0.353199 0.140221 2.93286 86 44 53
0.354271 0.140413 2.93131 180 157 160
0.350424 0.139995 2.93792 172 144 148
0.353128 0.140453 2.93344 157 117 126
0.352875 0.140358 2.9326 150 110 118
0.358344 0.141601 2.92798 179 154 158
0.351391 0.140567 2.93737 110 88 91
0.351493 0.140598 2.93659 170 146 150
0.350079 0.140774 2.94007 98 68 74
0.351763 0.14082 2.93665 116 92 96
0.352719 0.14102 2.93509 158 135 138
0.352718 0.140964 2.93418 106 72 79
0.352255 0.141236 2.93659 122 95 100
0.352816 0.141278 2.93555 125 104 106
0.352841 0.141635 2.93601 170 145 148
0.354231 0.141769 2.93344 180 162 164
0.355876 0.142128 2.93033 181 166 168
0.349678 0.142181 2.94453 148 141 140
0.352629 0.142159 2.93696 110 78 84
0.352458 0.142293 2.93779 176 160 160
0.356888 0.142827 2.93075 146 110 118
0.358271 0.144271 2.93167 168 154 156
0.3548 0.144219 2.93744 170 156 157
0.359267 0.145989 2.93443 152 132 138
0.403672 0.0986369 2.93207 129 86 68
0.40128 0.135152 2.9439 127 80 64
0.401186 0.138649 2.94419 132 86 73
0.374431 0.137204 2.95155 88 62 29
0.370359 0.136423 2.93242 74 54 48
0.353456 0.139192 2.93211 114 83 88
0.358119 0.14028 2.92724 144 114 120
0.35774 0.140403 2.92764 128 93 100
0.357487 0.140525 2.92774 170 136 142
0.350225 0.139854 2.93858 102 68 76
0.350696 0.139961 2.93718 103 74 79
0.349611 0.14009 2.93918 147 115 122
0.351351 0.140543 2.9372 110 88 91
0.351601 0.140575 2.93674 160 138 141
0.349295 0.14084 2.94148 104 76 82
0.354339 0.141468 2.93254 94 54 62
0.352756 0.141527 2.93596 168 146 150
0.353735 0.1417 2.93421 106 68 74
0.354506 0.141699 2.93227 140 106 114
0.355988 0.142136 2.93058 185 174 174
0.356274 0.144609 2.93557 170 158 160
0.359784 0.146517 2.93522 126 110 116
0.37561 0.153117 2.92347 106 102 102
0.40305 0.0967526 2.9313 116 74 56
0.382559 0.133467 2.94126 52 29 24
0.361246 0.13832 2.92723 78 46 36
0.370552 0.144051 2.94014 123 108 110
0.353051 0.138876 2.93196 192 177 178
0.358158 0.140313 2.92726 138 105 111
0.357877 0.140628 2.92775 92 52 60
0.350899 0.139696 2.93696 118 90 95
0.350797 0.140015 2.93734 104 76 81
0.350535 0.140141 2.93802 176 151 155
0.351476 0.140284 2.93681 141 123 125
0.353202 0.140463 2.93348 152 112 121
0.35438 0.141453 2.9327 98 56 66
0.355215 0.141815 2.93204 146 112 119
0.356083 0.142195 2.93081 186 174 176
0.352398 0.142216 2.93765 170 156 156
0.375588 0.153108 2.92346 108 105 105
0.403669 0.141006 2.94127 133 92 78
0.401194 0.141007 2.94468 124 80 68
0.370396 0.136468 2.93244 50 30 25
0.352113 0.138333 2.93255 104 82 86
0.353089 0.138878 2.9318 196 180 181
0.356925 0.140187 2.92582 110 72 78
0.353357 0.140217 2.9332 95 54 63
0.353964 0.140196 2.93154 116 78 85
0.354491 0.140563 2.93143 189 174 174
0.351723 0.140714 2.9364 134 114 116
0.354532 0.143174 2.93545 173 155 156
0.354084 0.143485 2.93644 96 64 70
0.354777 0.144236 2.93753 140 120 124
0.375274 0.152945 2.923 106 103 103
0.40526 0.130343 2.93426 134 98 80
0.401301 0.137014 2.94563 131 86 70
0.4047 0.141591 2.93893 138 98 87
0.376773 0.135182 2.93755 108 86 82
0.357512 0.139986 2.92733 160 144 144
0.354341 0.139533 2.93046 114 70 78
0.352711 0.139901 2.93388 183 172 172
0.350451 0.140065 2.93806 152 124 128
0.361211 0.144138 2.93191 152 146 146
0.391187 0.130159 2.94776 116 94 90
0.408329 0.137785 2.93422 132 86 70
0.352475 0.13866 2.93341 78 50 54
0.357571 0.140414 2.92693 94 54 62
0.354322 0.140387 2.93081 182 173 172
0.352064 0.140828 2.93485 174 164 162
0.360108 0.145362 2.93365 159 148 150
0.406375 0.142747 2.93751 72 26 22
0.35218 0.138577 2.93278 86 56 61
0.354788 0.139371 2.93147 128 78 88
0.355636 0.141821 2.9305 180 176 174
0.381722 0.131599 2.96287 146 130 124
0.353008 0.138577 2.93189 182 180 176
0.349993 0.139208 2.93531 137 104 110
0.40356 0.0978877 2.93265 123 81 64
0.401666 0.131308 2.93928 112 63 42
0.351749 0.140802 2.93922 116 94 97
0.354706 0.138952 2.93078 96 68 71
0.400577 0.110784 2.93843 129 86 74
0.350735 0.139653 2.93696 142 112 118
0.401438 0.107835 2.93434 98 54 38
0.407256 0.121326 2.92934 134 98 89
0.406507 0.119596 2.9294 136 97 80
0.414084 0.117131 2.9272 95 66 59
0.411427 0.118494 2.92748 126 89 75
0.402964 0.123308 2.93383 49 10 4
0.41311 0.115265 2.92663 49 18 10
0.404613 0.118796 2.93053 98 59 42
0.401793 0.121247 2.93547 118 74 60
0.404521 0.123275 2.93088 78 42 32
0.407295 0.122764 2.93007 136 96 80
0.405434 0.124293 2.93227 140 105 92
0.405604 0.124872 2.93206 86 50 34
0.41449 0.115724 2.92681 62 33 24
0.401547 0.12054 2.93609 114 66 42
0.412375 0.124024 2.92865 70 38 28
0.405462 0.124774 2.93194 100 66 50
0.419812 0.1288 2.9331 60 32 22
0.405127 0.124384 2.93249 89 53 38
0.403817 0.117378 2.93048 148 110 90
0.409723 0.122981 2.92906 115 78 64
0.405783 0.142768 2.93917 154 119 102
0.405956 0.125193 2.93175 88 50 34
0.407237 0.129731 2.93228 118 80 72
0.407805 0.132114 2.93224 106 67 54
0.406454 0.114053 2.92808 123 88 74
0.407206 0.114577 2.92736 53 17 8
0.406766 0.114768 2.92778 56 19 6
0.405644 0.113616 2.92847 64 28 16
