ply
format ascii 1.0
element vertex 1361
property float x
property float y
property float z
property uchar red
property uchar green
property uchar blue
end_header
2.68192 0.215167 7.12811 84 42 33
2.84933 0.175579 7.07363 63 24 18
2.62298 0.250191 7.14486 132 92 74
2.74766 0.222796 7.11425 99 61 50
2.25136 0.36373 7.32963 166 118 104
3.14829 0.169261 7.19938 62 28 16
2.80116 0.246571 7.12592 102 62 53
3.11359 0.183738 7.18198 138 102 87
0.931492 0.791676 8.02255 74 43 46
3.10752 0.230605 7.20156 64 28 13
2.96786 0.269357 7.1739 69 32 24
3.1744 0.229705 7.22797 48 16 9
3.22514 0.249559 7.26014 97 62 49
3.03337 0.288538 7.18385 88 52 34
2.96502 0.343255 7.22273 49 13 8
2.26061 0.516242 7.35162 142 98 78
2.41237 0.479987 7.28058 119 78 64
2.87454 0.37206 7.1925 152 114 101
3.20345 0.309273 7.24872 58 25 16
0.947171 0.93192 8.08008 130 107 108
3.15618 0.379825 7.2565 63 29 22
3.24224 0.369308 7.27829 54 20 12
3.31773 0.355906 7.32631 82 49 34
2.41871 0.564257 7.26269 70 30 15
2.54885 0.531269 7.26906 140 108 97
3.27989 0.409043 7.34084 42 10 2
2.94241 0.501794 7.21996 68 30 24
3.16969 0.457705 7.28209 48 14 6
2.81897 0.548614 7.2288 98 60 50
2.95728 0.53287 7.27619 140 101 94
3.02525 0.513041 7.24314 86 50 33
0.807981 1.16808 8.10928 128 110 112
3.12943 0.505744 7.27287 70 34 22
2.83647 0.586225 7.27208 144 107 94
2.92342 0.57452 7.24559 148 110 102
3.08496 0.558082 7.28764 138 104 84
2.61748 0.671065 7.25723 65 25 20
3.13309 0.565036 7.30035 54 18 14
2.89565 0.61994 7.25425 50 12 2
3.08433 0.61025 7.29183 60 22 15
2.85691 0.667643 7.27205 65 27 11
2.91762 0.640985 7.23797 144 106 90
3.04829 0.622806 7.2812 59 22 12
2.95094 0.660026 7.26263 86 48 34
2.7719 0.704206 7.27347 113 74 60
3.06767 0.830267 7.35962 104 66 46
3.21213 0.806642 7.41358 103 65 47
2.76781 0.977238 7.35784 112 66 46
3.10144 0.987379 7.41963 121 78 61
2.74027 1.11501 7.42299 154 106 90
2.82732 1.29698 7.45186 140 92 80
2.4553 1.54749 7.61281 69 32 23
2.84997 1.39807 7.47934 151 104 88
2.98044 1.61967 7.57743 62 21 12
2.85726 -1.90718 6.80902 55 18 4
2.5423 -1.81404 6.82114 97 51 28
2.7167 -1.77226 6.83559 140 96 78
2.62814 -1.76328 6.84554 65 21 13
2.8792 -1.79617 6.88333 111 71 62
2.88231 -1.74595 6.87904 54 14 6
2.69886 -1.70822 6.87005 148 103 86
2.66392 -1.62409 6.87297 128 81 60
2.7129 -1.48162 6.88023 127 81 61
2.5636 -1.27922 6.85826 164 117 101
2.82094 -1.28416 6.85881 133 90 76
2.87771 -1.25915 6.85592 95 54 43
2.86475 -1.25967 6.86101 110 69 54
3.05619 -1.18225 6.89389 118 81 66
3.04225 -1.10719 6.86525 90 50 32
3.15384 -1.13149 6.93125 114 78 63
2.90837 -1.04509 6.83563 138 92 75
3.17197 -1.07749 6.93493 111 73 57
2.83249 -0.92522 6.81722 130 86 64
3.21301 -0.987158 6.95709 98 61 52
2.6876 -0.79892 6.83124 82 40 28
2.93865 -0.819662 6.86191 106 64 46
2.9842 -0.767544 6.8925 59 20 12
3.05241 -0.777314 6.90592 108 70 52
2.80798 -0.721723 6.87268 130 90 80
2.8674 -0.721005 6.86994 142 102 87
2.9122 -0.725184 6.87886 50 11 4
2.97285 -0.728521 6.89129 130 91 73
3.03188 -0.719631 6.91547 114 74 64
2.95448 -0.696241 6.90551 55 16 10
2.83336 -0.66932 6.87165 87 44 30
3.02202 -0.688679 6.91608 116 74 64
2.84126 -0.61234 6.87568 150 106 93
2.61059 -0.569199 6.88162 74 34 28
2.80581 -0.582522 6.87699 77 36 22
3.07868 -0.60312 6.95001 48 11 6
2.87739 -0.557521 6.91459 56 14 8
3.00131 -0.566032 6.92363 131 94 80
2.23885 -0.356591 7.07834 76 28 14
3.01642 -0.482885 6.97102 113 74 68
3.04695 -0.489215 7.00838 108 72 64
3.20415 -0.494281 7.04665 34 2 0
3.0804 -0.464673 6.97126 46 8 3
2.20413 -0.287775 7.12876 86 38 28
2.33421 -0.270132 7.07165 112 66 55
3.06053 -0.386987 7.01164 131 91 76
2.30282 -0.234716 7.05661 170 124 102
2.92272 -0.317419 6.96872 96 54 34
3.18549 -0.344022 7.06224 38 6 3
2.3395 -0.164799 7.07436 164 120 106
3.12075 -0.31088 7.08089 84 47 34
3.04788 -0.234994 7.05493 132 96 80
2.17269 -0.0386368 7.21188 161 114 98
2.63692 -0.105805 7.03436 132 91 82
2.81195 -0.141929 7.01 154 114 95
-0.0577061 0.600306 9.35359 102 88 80
2.99107 -0.164683 7.041 139 102 90
2.39059 -0.0236982 7.1241 90 50 38
3.32983 -0.173189 7.19997 53 25 18
3.17877 -0.127524 7.12066 76 42 34
2.4034 0.0392739 7.11639 178 135 120
2.7425 -0.0202712 7.03097 85 46 37
2.86062 -0.0329989 7.05615 75 36 22
2.95552 -0.0315727 7.07211 114 76 62
3.04074 -0.032587 7.08732 50 15 6
2.32346 0.126843 7.18201 171 128 108
2.40332 0.115342 7.17391 169 126 108
-1.62198 0.966294 7.4921 40 42 18
2.15474 0.198081 7.3588 175 130 106
3.24849 -0.028965 7.21236 116 83 72
3.14724 -0.00480016 7.13285 96 60 48
3.20477 -0.0105595 7.17908 64 30 20
2.96058 0.0512662 7.09318 80 41 26
2.63299 0.169364 7.10663 90 50 42
2.97216 0.094252 7.10032 139 100 89
3.28105 0.0484824 7.27041 90 56 42
2.1228 0.340798 7.38826 104 56 42
2.78726 0.179891 7.09994 65 27 18
2.78261 0.211311 7.12297 154 116 106
2.731 0.237779 7.1035 156 115 103
2.40667 0.327854 7.24152 114 73 57
3.23218 0.16416 7.23947 64 30 22
3.10041 0.192956 7.15527 136 100 85
2.2001 0.426433 7.38592 96 48 36
3.10186 0.228447 7.17254 72 36 21
2.57356 0.350207 7.18035 88 50 40
2.96115 0.258627 7.15201 90 52 40
3.3097 0.203619 7.30384 99 65 53
2.76082 0.331294 7.15268 84 47 34
2.24768 0.474829 7.34533 172 126 104
3.21932 0.250472 7.251 77 44 32
2.90922 0.326566 7.17517 100 62 52
3.03221 0.296917 7.21233 92 56 40
3.15323 0.306168 7.23064 96 63 45
3.27454 0.308625 7.31451 63 31 20
3.11248 0.363547 7.22289 54 17 9
2.34062 0.563717 7.27886 106 66 49
2.96932 0.426343 7.22377 62 26 20
3.08276 0.450064 7.25377 62 26 18
2.67623 0.548442 7.22498 117 80 66
2.85836 0.534522 7.22269 78 40 27
0.816594 1.15221 8.08064 124 112 110
2.97758 0.590081 7.25863 44 6 0
3.13897 0.5555 7.29389 66 29 22
0.607154 1.22541 7.73571 132 114 114
3.40182 0.535985 7.42507 88 56 42
2.65489 0.726472 7.33063 165 125 110
2.67025 0.720532 7.27717 96 58 45
2.94897 0.663024 7.27297 66 28 15
0.363614 1.47191 7.58769 108 92 94
3.05633 0.837126 7.35454 116 78 58
2.90134 0.922794 7.34258 124 81 60
3.01693 0.972933 7.38755 116 70 52
2.722 1.11035 7.40161 162 114 97
2.44015 1.54035 7.60313 71 36 28
2.8554 1.39898 7.49663 144 98 82
3.63424 -2.55202 7.04427 96 84 75
2.86212 -1.89952 6.78267 56 18 6
2.67866 -1.79369 6.84393 142 98 80
2.81508 -1.79108 6.88423 58 17 11
2.87504 -1.75089 6.91157 58 16 8
2.7399 -1.59847 6.8899 112 66 49
2.68029 -1.1835 6.83271 152 108 89
2.83673 -1.13616 6.82394 148 103 86
2.90696 -1.04445 6.83761 138 92 75
3.1624 -1.08739 6.94691 114 76 59
3.04733 -1.02195 6.88622 106 60 42
2.58753 -0.924343 6.86774 170 135 124
2.69208 -0.795849 6.82984 66 24 14
2.83948 -0.79632 6.8398 64 20 12
2.9125 -0.810238 6.80521 144 102 82
2.70335 -0.744043 6.835 153 114 100
2.72768 -0.749197 6.82494 136 98 81
3.29376 -0.847343 7.03569 70 37 26
2.83422 -0.75146 6.86738 52 13 8
2.97195 -0.767302 6.90307 53 14 5
2.96906 -0.725935 6.8912 129 90 72
2.93782 -0.702797 6.89332 53 14 8
2.871 -0.657774 6.9029 60 18 10
2.92521 -0.665039 6.89426 138 98 81
2.49499 -0.582981 6.86172 71 32 22
2.60615 -0.565942 6.8733 76 36 31
2.65798 -0.567804 6.88427 164 128 112
2.41829 -0.480262 6.9708 170 127 114
2.86425 -0.559553 6.90542 57 15 8
3.0142 -0.566636 6.98126 134 96 82
2.91084 -0.533875 6.94211 141 102 88
2.95502 -0.535927 6.95511 100 63 50
3.12275 -0.574385 7.02759 52 18 12
3.02166 -0.494611 6.97395 68 31 20
2.32529 -0.261137 7.11167 94 48 39
2.38931 -0.225952 7.06334 176 133 112
3.02611 -0.334556 7.01144 58 20 10
2.93272 -0.255771 7.00185 86 46 39
3.11769 -0.289489 7.06014 43 7 3
2.59658 -0.139956 7.10838 118 80 73
3.1066 -0.243508 7.18755 70 35 36
2.98757 -0.167604 7.0395 126 88 78
2.84981 -0.120286 7.02458 97 59 44
3.23011 -0.184821 7.15399 86 52 41
3.07968 -0.144326 7.0944 122 87 73
3.2279 -0.15044 7.14159 112 78 60
2.6348 -0.00653752 7.0569 118 76 66
2.74237 -0.0088325 7.05751 59 20 13
2.85661 -0.0291255 7.05305 96 58 44
1.07832 0.475874 8.33797 175 168 165
2.6367 0.0760068 7.08705 102 59 48
2.69546 0.148384 7.10581 154 116 96
2.6224 0.253937 7.14206 124 84 66
2.74728 0.244936 7.13929 112 74 62
2.95115 0.208845 7.16904 130 94 79
3.22609 0.15737 7.22573 92 58 48
3.08385 0.193013 7.19624 136 100 84
3.1021 0.231898 7.19282 75 38 22
3.02835 0.301485 7.21089 124 88 72
0.894642 0.900595 7.97603 110 86 88
0.446248 0.965992 7.32247 55 28 30
0.781562 1.11552 7.94251 134 114 116
2.84086 0.610337 7.23177 154 118 94
2.99489 0.606127 7.3484 97 61 48
2.8835 0.624994 7.25287 65 28 16
2.77586 0.682219 7.26486 136 98 81
0.374351 1.26339 7.41616 130 116 116
2.89905 0.935135 7.35772 120 76 56
3.00872 0.965931 7.35997 121 75 58
2.71994 1.11354 7.41133 162 114 97
3.35211 1.37876 7.68805 112 76 63
2.64874 -1.88721 6.78829 122 77 63
2.60375 -1.75686 6.87139 106 62 50
2.78284 -1.73102 6.89895 137 92 73
3.14107 -1.12095 6.93529 104 67 52
2.7961 -0.74647 6.86235 146 108 96
2.36327 -0.525856 7.03166 170 126 108
2.61033 -0.576734 6.96359 82 46 37
2.6921 -0.592264 6.89134 122 82 74
2.85369 -0.614067 6.88302 148 106 86
3.08941 -0.594294 6.9444 42 4 1
2.28742 -0.436432 7.09437 128 82 66
2.29025 -0.256752 7.20983 124 78 61
2.96225 -0.254239 7.04487 76 38 31
2.99922 -0.202836 7.04535 58 20 18
2.95602 -0.141368 6.96596 116 79 66
3.07984 -0.152614 7.09333 127 92 78
3.21687 -0.153995 7.15661 116 80 62
2.3515 0.061308 7.15343 94 46 42
2.74408 -0.00330007 7.0622 64 24 16
2.84376 -0.0158194 7.15808 110 70 56
1.07899 0.462548 8.30725 175 168 166
2.9556 -0.0297858 7.07891 50 12 1
2.62985 0.0749504 7.09608 144 101 90
2.87728 0.0587342 7.09881 128 88 69
2.80493 0.0997761 7.09094 124 86 74
3.09523 0.0550939 7.1496 137 101 84
2.92019 0.126427 7.0966 85 46 40
2.50024 0.247019 7.16105 142 108 101
3.30653 0.198809 7.26769 100 66 56
2.58423 0.353527 7.18892 74 35 27
2.89606 0.293012 7.17708 153 116 96
3.02237 0.303317 7.18431 103 66 52
0.649487 1.01258 7.66682 134 118 117
3.19608 0.395585 7.269 118 86 74
0.805035 1.09043 7.94004 128 108 108
2.95196 0.516094 7.21552 106 68 61
3.14108 0.552901 7.30108 58 22 19
0.271463 1.42471 7.41908 122 114 112
3.0547 0.840241 7.34286 115 76 56
2.88526 0.933861 7.33789 132 89 68
2.6712 1.03604 7.37648 132 84 68
2.84955 1.3958 7.49821 150 103 87
2.67944 -1.69649 6.86456 158 113 92
2.73395 -1.60566 6.90673 126 80 64
2.69657 -0.80252 6.84059 86 45 32
2.57162 -0.76049 6.872 124 86 77
2.83136 -0.795533 6.88832 116 73 60
2.94557 -0.616011 6.88592 70 28 24
3.09798 -0.598923 7.01933 65 31 24
1.0566 0.453137 8.32334 178 171 168
1.14433 0.530986 8.31041 100 78 76
2.81024 0.0672561 7.07054 154 116 100
3.0986 0.0454404 7.10668 134 98 80
3.01323 0.184946 7.10187 139 102 84
2.43701 0.345547 7.20385 176 136 126
2.93927 0.52675 7.22278 81 43 33
3.14109 0.549762 7.33635 74 38 30
2.92711 0.619639 7.26382 52 16 8
0.776142 1.22745 7.78314 94 74 76
-0.643983 1.60521 7.60462 114 103 99
2.88006 0.93257 7.34957 140 98 76
2.70489 1.09731 7.42643 155 107 90
2.35467 -2.00468 6.6844 96 49 27
2.48148 -1.5857 6.0141 101 62 49
2.17392 -1.40972 7.07724 150 103 86
2.60058 -1.34719 6.88593 150 105 89
2.75005 -1.06734 6.81044 136 90 74
2.84405 -0.669026 6.86045 99 59 48
2.84734 -0.37504 6.90765 143 104 86
2.96759 -0.328071 6.99578 74 36 19
2.82534 -0.100919 7.18151 63 25 10
2.78045 -0.0227006 7.03216 110 73 62
2.56538 0.0769353 7.09548 60 22 12
2.37936 0.218871 7.07183 160 116 104
-2.12491 1.11888 7.02507 132 113 96
2.83103 0.164421 7.11171 106 68 64
2.82896 0.365699 7.17793 141 104 96
2.47002 0.474497 7.25177 68 30 19
2.36521 0.531909 7.30137 84 46 35
2.56779 0.522731 7.23055 66 30 18
2.56625 0.560224 7.24715 160 123 110
2.56519 0.583748 7.24845 62 25 14
2.51611 0.637805 7.28171 160 123 112
3.17151 0.554587 7.303 50 16 4
2.68374 0.695738 7.27006 144 106 94
2.78027 0.691711 7.2332 88 50 40
2.73967 0.719664 7.2798 104 64 50
-0.585434 1.4382 6.13472 84 66 66
-0.655939 1.50703 6.09022 97 84 84
2.85586 1.42362 7.51155 138 92 76
2.54149 -1.8161 6.82404 94 48 30
2.35166 -1.31336 6.934 148 100 83
2.58532 -1.28696 6.86052 153 108 92
2.90006 -0.707479 6.88631 49 14 6
2.79803 -0.619296 6.88469 90 49 36
3.08569 -0.240583 7.05016 54 21 13
3.11694 -0.247918 7.07305 98 64 62
3.02175 0.0837933 7.12378 127 92 78
3.10534 0.0914575 7.15612 110 76 64
2.21879 0.306904 7.33135 166 122 104
2.69183 0.219071 7.08986 104 65 57
2.75427 0.210034 7.09292 118 81 70
2.86929 0.187665 7.1335 142 106 92
2.66794 0.263776 7.11449 85 48 32
2.59673 0.331441 7.17507 161 124 106
2.93803 0.275341 7.16691 138 104 87
2.58996 0.378506 7.19331 154 116 103
2.70572 0.384862 7.20065 143 108 101
3.24105 0.366594 7.29179 40 10 4
2.7701 0.558179 7.22568 68 32 20
2.7 0.594138 7.23925 143 107 96
2.80511 0.590864 7.2529 78 41 30
2.79496 0.642851 7.2395 80 44 28
2.73454 0.681287 7.26866 140 102 92
2.76043 0.692125 7.28522 118 80 69
-0.609945 1.41321 6.11158 126 110 105
2.81864 -0.971144 6.79035 119 75 57
2.89668 -0.791537 6.86097 130 92 78
2.878 -0.721624 6.87943 108 72 59
2.60962 -0.282174 7.00136 144 105 86
-2.00407 0.780523 6.93379 95 76 40
-1.90202 0.938685 7.36858 92 75 40
-1.8967 0.980805 7.31266 68 48 8
2.77841 0.0719564 7.08159 58 18 10
2.6367 0.163493 7.11963 123 84 74
3.17594 0.0916649 7.1908 92 58 47
2.25356 0.318703 7.31424 68 23 12
2.91116 0.193496 7.13704 63 26 14
2.70272 0.255397 7.06803 92 54 40
3.15273 0.190168 7.21562 58 23 10
2.32308 0.493742 7.31672 74 30 20
3.11744 0.380103 7.25195 62 26 17
3.21973 0.419234 7.30794 92 60 51
2.8183 0.544918 7.22485 102 65 51
2.77065 0.587714 7.23346 60 23 15
2.74922 0.674314 7.25718 151 114 102
2.73124 0.709227 7.28865 54 16 6
-0.649637 1.50323 6.08009 122 113 112
2.60901 -1.53485 6.88863 122 78 57
2.83214 -0.766245 6.90099 94 56 52
2.91021 -0.716218 6.89116 52 16 6
2.81718 -0.634398 6.88203 112 72 57
2.97641 -0.63174 6.91657 55 18 12
2.90722 -0.59769 6.93232 134 100 78
2.99606 -0.564006 6.93096 122 87 74
3.10477 -0.556982 6.98236 108 76 66
3.05688 -0.326196 7.06352 64 30 19
3.10336 -0.328448 7.05243 116 84 67
2.64552 -0.106852 7.03781 83 45 36
-1.62402 0.973583 7.50079 38 40 23
2.92583 0.10174 7.09767 63 26 18
3.09582 0.069836 7.09662 117 81 67
-2.10854 1.12696 7.06045 20 12 6
2.7341 0.244822 7.09732 115 78 65
2.59925 0.389466 7.1939 160 121 106
3.16998 0.292353 7.24162 65 32 18
2.79651 0.651102 7.25359 52 15 2
-0.269163 1.31404 6.48104 90 76 74
3.17289 0.877338 7.38777 100 62 44
2.74908 -0.761383 6.80635 114 77 68
2.5775 -0.104041 7.06831 111 75 62
2.24187 0.165581 7.25259 88 44 29
2.83201 0.223483 7.11701 138 100 90
2.9951 0.227839 7.14158 59 24 12
2.31119 0.400484 7.30209 106 64 56
2.91999 0.293616 7.11945 140 104 87
2.93555 0.357583 7.18061 133 97 84
3.20473 1.48535 7.58392 120 80 70
2.79825 -0.730105 6.86482 106 69 57
2.85049 -0.605587 6.89317 134 96 75
2.98903 -0.531289 6.94997 106 71 57
2.97641 -0.0261049 7.09487 101 64 49
-2.19129 1.07873 7.06698 39 26 22
2.20084 0.281614 7.31592 167 123 102
2.79927 0.251823 7.11677 58 20 12
2.90815 0.375774 7.17308 128 92 80
2.62546 0.555336 7.25924 109 74 60
2.64461 0.689407 7.28794 80 42 29
2.93751 0.639543 7.27746 122 86 72
2.84852 1.41111 7.50788 136 89 74
2.58798 -1.5228 6.88912 136 90 72
2.87329 -0.134914 7.04165 96 58 47
2.7472 0.244153 7.13444 78 40 29
2.80694 0.555065 7.21994 97 60 48
2.81448 -0.761514 6.87017 78 42 34
2.92317 -0.743676 6.8894 58 22 18
3.02746 -0.0255674 7.20809 80 44 30
2.67908 0.761273 7.73701 112 72 56
2.47468 -0.253634 7.00873 142 102 94
2.44907 -0.241302 7.01328 62 24 14
2.44761 -0.241656 7.01303 101 62 48
2.56164 -0.111811 7.03165 68 32 18
2.60215 0.374465 7.18231 136 100 87
2.68415 0.677163 7.29145 116 80 70
2.59157 -0.369721 6.94989 71 32 22
2.47472 -0.255579 7.01358 143 102 92
2.58637 -0.18798 7.0108 102 70 64
2.71869 0.00694011 7.05831 87 49 37
2.78854 -0.00182503 7.04986 58 21 16
2.64143 0.0782236 7.08703 91 52 38
2.49668 -0.631588 6.90793 54 13 4
2.518 0.586222 7.27157 147 110 100
2.69995 -0.579988 6.88033 100 64 51
2.63299 -0.00760956 7.05185 94 57 48
2.80381 0.117106 7.09227 131 96 86
2.92148 0.616911 7.25904 72 38 28
2.66185 -0.661853 6.86783 83 51 38
2.56154 -0.259665 7.01565 140 102 88
2.8193 0.170988 7.13842 58 22 18
2.5731 -0.133698 7.03968 149 114 100
2.43785 0.487804 7.26423 164 124 110
2.62004 -0.290133 6.96256 95 58 48
2.56226 -0.0893427 7.0418 69 30 22
2.52105 -0.0536711 7.06432 66 25 18
2.56035 -0.00125448 7.06886 90 49 38
2.56807 0.556048 7.24247 150 112 99
2.52768 0.60781 7.25865 62 24 20
2.52808 0.640785 7.24732 158 120 110
2.97018 0.834117 7.29646 126 88 68
2.59313 -0.264179 6.98813 142 104 88
2.54417 -0.130204 7.03895 90 52 45
2.51643 -0.0513171 7.07324 76 36 29
2.48352 0.522182 7.24267 76 38 31
2.51855 0.600294 7.23255 116 78 68
2.82653 0.536394 7.21687 144 108 89
2.53835 0.626531 7.20965 132 94 83
2.66039 -0.585739 6.88428 145 108 100
2.3939 0.126954 7.1565 160 116 98
2.56867 0.338588 7.17019 78 42 34
2.54143 0.541632 7.22326 120 82 70
2.9865 0.596099 7.26583 67 30 24
2.9327 -0.592052 6.89384 88 52 39
2.2416 0.312129 7.31626 165 124 102
2.29784 0.485992 7.3793 93 53 42
3.02359 0.516711 7.2356 93 58 44
2.79388 -0.597527 6.88981 134 92 80
2.86866 0.644233 7.30209 146 110 89
2.66085 -0.63884 6.8703 74 35 30
2.58563 -1.29081 6.8705 155 108 92
2.12222 -0.9464 7.02133 168 116 99
2.38397 -0.48285 6.96271 80 36 23
2.31298 -0.421984 7.01927 62 17 6
2.16043 -0.357595 7.12702 72 30 18
2.64519 -0.314455 6.96865 96 54 34
3.13917 -0.409791 7.15803 100 63 57
2.64582 -0.258902 6.98773 92 52 40
2.64742 -0.121139 7.01804 71 34 26
2.86394 0.249078 7.17429 102 63 52
2.61691 0.632477 7.24876 115 77 66
-0.180824 1.28906 6.52853 89 66 66
2.25034 1.29591 7.26928 139 94 80
1.49837 -2.4215 7.12149 132 123 122
2.61217 -1.76924 6.8398 136 94 79
2.06273 -1.22582 7.08496 151 106 88
2.2301 -0.822249 6.93468 174 124 103
2.47196 -0.755548 6.86933 82 42 35
2.76795 -0.723986 6.86463 70 30 17
2.33191 -0.508104 6.98142 105 62 46
3.20486 -0.39653 7.0732 44 11 6
2.28203 -0.183673 7.00415 124 80 67
2.24632 -0.0495311 7.18753 98 52 38
2.86669 -0.0376857 7.05131 57 18 6
2.67241 0.225143 7.1315 120 79 70
2.75952 0.259275 7.12411 55 18 10
2.83008 0.363666 7.17659 148 109 100
2.95001 0.355483 7.18552 146 107 96
3.3089 0.322037 7.31634 111 80 70
3.24695 0.41101 7.31474 52 19 8
2.94948 0.496312 7.23661 96 58 44
2.95223 0.525201 7.23088 145 107 96
2.61618 -1.76378 6.8939 118 76 64
2.84766 -1.18148 6.84106 111 70 52
2.54387 -0.719868 6.87672 110 71 62
2.16143 -0.366278 7.13138 82 36 18
2.98706 -0.474609 6.9486 96 58 46
3.17805 -0.210063 7.11151 74 40 30
2.44708 0.141097 7.14169 136 95 77
3.27693 -0.0213978 7.22637 68 34 24
3.31285 0.229837 7.26074 52 20 12
2.97219 0.330861 7.19314 67 28 18
3.15553 0.376031 7.26312 54 19 10
2.3772 0.612684 7.32674 96 54 38
2.663 -1.62683 6.87411 123 78 56
2.97526 -0.77077 6.90524 106 66 54
2.32643 -0.171069 7.05071 174 132 114
2.08203 0.0130002 7.26667 80 32 24
3.15849 -0.220126 7.07729 64 31 22
2.30698 -0.021458 7.15214 164 120 106
2.25623 0.0895958 7.21318 126 82 62
2.38512 0.0677089 7.15054 72 27 19
3.39702 -0.114903 7.27566 64 34 27
2.80089 0.126828 7.11332 104 66 58
3.3393 0.0407817 7.30094 52 20 10
2.16892 0.359689 7.36255 154 108 90
2.822 0.266753 7.15578 73 34 22
3.33814 0.220186 7.30171 105 74 67
2.82476 0.335253 7.16203 84 46 33
2.38024 0.606742 7.33584 96 54 38
3.22109 0.405069 7.30329 120 86 76
2.50602 0.572628 7.10371 159 120 107
2.59586 0.62019 7.27601 162 124 112
2.60003 0.704953 7.30792 84 42 31
3.41041 0.545289 7.44773 84 52 40
-0.206532 1.23459 6.53694 72 58 51
3.06199 1.06518 7.41788 143 98 82
3.37326 1.0284 7.55163 114 79 70
2.56487 -1.74866 6.84153 126 83 64
2.74709 -1.58732 6.89106 88 42 27
3.05975 -0.541531 6.96879 54 18 10
2.99304 -0.513239 6.94527 128 90 75
3.29386 -0.194144 7.10298 70 40 30
2.74219 0.0942112 7.12602 78 40 28
2.71454 0.150065 7.10724 160 122 100
2.67739 0.217094 7.12898 68 27 18
2.9941 0.261003 7.15136 138 100 85
2.2722 0.495095 7.32331 168 124 104
2.5444 0.554649 7.19163 77 39 32
3.39439 0.808985 7.51213 114 80 66
3.2626 0.985044 7.45817 126 88 72
3.3755 1.04515 7.56982 111 76 66
2.56538 -1.74183 6.84081 95 51 34
3.04678 -1.12869 6.85764 86 46 32
2.24064 -0.829078 6.9401 173 124 102
2.63355 -0.108883 7.0313 137 100 88
2.74746 0.101306 7.10355 68 28 22
2.61277 0.39286 7.19955 166 128 112
3.40971 0.547298 7.43814 91 58 46
-0.651398 1.5186 6.09912 72 58 58
1.51719 -2.45423 7.19497 136 122 117
2.5348 -1.81863 6.82479 115 69 47
3.03285 -1.40958 6.96776 88 51 37
2.82899 -1.14533 6.82049 139 94 78
2.96027 -0.767379 6.91329 71 36 28
3.11321 -0.576657 7.06089 41 8 2
-2.09312 1.08513 6.8071 116 95 80
-3.10492 1.41656 7.84445 96 88 78
3.09102 0.22904 7.19296 103 67 51
3.12044 0.451286 7.28323 128 92 78
2.83265 -1.04716 6.82236 99 50 36
2.91181 -0.645903 6.90767 114 74 57
3.11921 -0.270453 7.03178 93 57 50
2.65349 0.678269 7.28535 84 46 35
2.67474 1.05089 7.43526 130 82 66
2.88851 -1.89189 6.84675 98 64 57
2.66469 -1.76589 6.84262 138 93 86
2.72899 -1.7438 6.8204 88 46 34
2.08506 -1.28661 6.91463 144 102 90
2.05426 -1.23296 7.07617 151 105 90
2.22324 -0.828671 6.97663 172 124 102
1.92943 -0.677853 7.35802 139 92 72
2.97884 -0.688148 6.97459 54 18 6
2.97534 -0.523749 6.953 47 12 3
2.88891 -0.358955 6.96731 84 44 26
2.19 -0.16382 7.17526 77 32 22
2.56301 -0.0832559 7.04196 66 28 19
3.1049 -0.0920081 7.0984 108 72 65
3.38398 -0.129029 7.2673 58 28 20
2.71536 -0.00326686 7.06588 66 26 16
2.933 0.0926869 7.06108 58 18 8
2.94241 0.196693 7.14029 54 15 5
2.88913 0.267628 7.12549 142 104 89
2.75235 0.344385 7.15647 52 12 4
2.97566 0.289966 7.20174 61 22 14
3.03639 0.282227 7.1876 42 8 4
3.33325 0.29506 7.33944 39 8 3
3.13977 0.359652 7.23745 119 84 73
2.4361 0.51757 7.26325 80 40 24
2.44144 0.525615 7.184 72 32 14
2.32689 0.587404 7.34104 70 27 6
2.37735 0.612151 7.31369 78 36 22
2.50244 0.620167 7.31113 104 68 55
2.66992 0.571623 7.23539 86 46 36
2.92235 0.520056 7.21262 80 40 30
3.12933 0.497505 7.2709 46 11 2
2.98308 0.535299 7.23359 57 18 8
0.249323 1.13487 7.12028 127 106 108
2.8662 0.564978 7.23378 151 110 100
2.55854 0.654413 7.28319 165 130 118
3.20484 0.511086 7.29313 62 26 12
3.05174 0.550659 7.251 52 16 4
3.14252 0.539946 7.2824 113 77 71
3.11538 0.641253 7.56784 112 76 64
3.0627 0.598095 7.26263 127 90 82
2.72846 0.685459 7.29948 108 70 60
3.09475 0.600835 7.28307 56 20 10
-0.627055 1.44717 6.12553 74 52 52
-0.574265 1.48399 6.1512 122 99 102
-0.0346775 1.53854 6.98572 104 79 83
-0.488904 1.55486 6.36393 67 50 51
-0.207494 1.62648 6.82773 66 46 49
-0.220084 1.6605 6.87292 101 77 82
-0.698103 1.81585 6.32667 132 118 118
2.65587 1.2844 7.45712 143 94 84
-0.747448 1.93072 6.39046 114 100 101
3.20581 1.48024 7.58127 118 75 66
2.27842 -2.02822 6.69446 92 47 31
2.82101 -1.98361 6.73241 74 36 20
2.67727 -1.89746 6.79698 68 27 12
2.53209 -1.82166 6.84171 94 52 31
2.66294 -1.77265 6.8639 124 80 72
2.86378 -1.79924 6.90579 91 54 48
2.33198 -1.63848 6.97996 144 96 74
2.89134 -1.59172 6.94993 88 48 30
2.92187 -0.697002 6.88209 104 66 56
3.21058 -0.347833 7.09081 96 64 58
3.20433 -0.328302 7.09108 42 12 8
2.64227 -0.0970862 7.02843 90 54 44
2.38189 0.143436 7.16642 142 98 80
3.19895 0.0558121 7.18316 44 11 6
3.31585 0.0736555 7.24775 39 7 3
3.31742 0.194349 7.31238 92 58 48
2.78846 0.351101 7.15718 102 64 53
2.98842 0.407618 7.20952 80 42 28
2.46835 0.588083 7.26609 118 80 64
2.70821 0.562948 7.22029 119 78 67
2.43866 0.644088 7.30622 69 30 20
0.179661 1.12248 7.08315 98 78 80
2.5718 0.641243 7.26915 87 52 39
3.04941 0.549893 7.2675 87 50 36
2.62818 0.707933 7.2891 158 118 102
-1.56637 1.49917 6.25883 152 148 144
-0.149723 1.38948 6.76273 96 74 76
-0.59123 1.48069 6.16991 112 90 92
-0.0397964 1.53566 6.99633 98 72 76
-0.997609 1.55282 5.91424 180 176 172
-0.0969441 1.54337 6.93273 115 96 98
-0.998148 1.69742 5.98166 162 146 148
-0.343238 1.72128 6.72956 73 50 54
2.29862 1.51595 7.67182 165 120 105
3.40345 1.35115 7.65543 102 66 56
2.5404 -1.81369 6.81743 94 52 31
2.73129 -1.76985 6.84218 132 90 74
2.35148 -1.31096 6.9382 152 102 86
2.85408 -1.00138 6.85416 120 74 56
3.13264 -0.411067 7.03247 56 24 15
3.21122 -0.354975 7.08669 104 72 66
3.18776 -0.339509 7.0904 49 18 12
2.22307 -0.114704 7.14044 126 82 66
2.67925 -0.193597 6.99905 118 78 76
2.7718 0.107712 7.08224 68 28 22
3.30856 0.0798415 7.28102 40 8 3
2.23844 0.414683 7.33682 96 50 40
2.90595 0.265 7.16719 66 28 12
2.29124 0.467746 7.30803 83 40 25
2.46861 0.593309 7.26478 84 46 31
2.93867 0.498609 7.22493 122 83 68
2.4331 0.646185 7.32083 78 39 30
2.54595 0.655787 7.29581 168 136 125
2.65081 0.651922 7.25299 152 114 102
-0.260572 1.30974 6.44228 86 70 68
3.40395 0.802725 7.49887 107 74 60
2.27937 1.43756 7.64918 154 106 94
2.45415 1.53799 7.5835 66 26 22
3.34557 1.34464 7.62086 106 69 56
3.34314 1.37503 7.6043 111 74 62
3.20817 1.48128 7.58465 113 70 62
2.8749 -1.88243 6.8373 112 78 66
2.5417 -1.81723 6.83597 85 43 22
2.67293 -1.77596 6.84165 140 96 88
2.73003 -1.77883 6.85912 135 92 76
3.13801 -0.543349 7.01103 46 12 8
2.88584 -0.365448 6.96248 111 71 52
2.33314 0.0851655 7.15877 137 90 80
2.24223 0.470774 7.34715 162 118 97
2.60804 0.580198 7.23777 61 23 10
2.53125 0.652531 7.27888 177 146 136
2.65167 0.64925 7.26275 146 108 97
2.69642 0.69864 7.27688 146 108 98
3.37008 1.02155 7.53146 107 72 61
3.63404 -2.53406 6.95874 97 90 86
2.81575 -1.78625 6.86829 51 14 8
3.02915 -0.339976 7.00283 59 22 14
2.77913 0.002354 7.05613 58 18 14
2.41969 0.187987 7.16652 162 118 104
2.60353 0.391796 7.1915 160 122 108
2.44509 0.557629 7.26353 164 126 107
2.49002 0.579584 7.26101 138 100 88
2.42355 0.631797 7.31795 126 87 77
-0.183789 1.29275 6.56317 136 116 117
-0.26709 1.76956 7.0236 120 106 108
2.64954 -1.89255 6.8053 84 40 26
2.55158 -1.82209 6.83504 91 47 30
3.07819 -0.596239 6.97357 59 24 14
3.09895 -0.216579 7.0628 80 45 37
2.94986 -0.126712 7.04199 134 96 80
-0.0557357 0.732068 9.18273 72 37 26
2.39557 0.496277 7.36756 124 84 68
3.11209 0.367929 7.23362 56 20 12
2.95098 0.417696 7.18061 103 64 52
3.16085 0.453279 7.29423 66 34 23
0.298792 1.18101 7.27836 130 112 112
3.02783 0.571136 7.31631 120 82 66
3.067 0.53982 7.17858 132 96 78
-0.575861 1.47899 6.16518 136 116 118
0.117789 1.53031 7.25957 128 115 115
-0.342278 1.6316 6.61634 132 118 118
3.20047 1.48951 7.58414 99 57 48
2.80254 -1.96679 6.72264 102 64 46
2.82655 -1.85776 6.82537 112 76 57
2.68076 -1.7998 6.80822 140 98 82
2.83003 -1.79074 6.86989 50 12 6
2.69147 -1.69072 6.85876 144 102 84
3.11266 -0.284618 7.0653 78 43 34
2.77419 -0.132017 7.06875 156 116 98
2.72889 0.1201 7.10867 144 103 91
2.40383 0.394714 7.26284 90 47 36
3.29236 0.304406 7.34269 74 42 30
2.58105 0.398677 6.31452 88 45 28
3.25296 0.401319 7.31118 53 19 10
0.786485 1.14766 8.12377 132 114 115
3.38281 0.739018 7.46378 90 56 44
-1.00392 2.09622 6.72625 110 100 102
2.61378 -1.76188 6.88281 106 63 52
2.25236 0.311072 7.26615 82 35 22
2.83016 0.612283 7.26598 152 112 88
-0.193377 1.49353 6.75408 127 117 116
0.165097 1.56838 7.41365 121 110 110
2.80868 0.585119 7.22855 48 12 8
2.66139 0.627092 7.25957 77 40 28
0.232095 1.11411 6.74503 124 105 105
-0.865309 2.04083 7.459 108 90 93
2.80814 0.579653 7.19206 80 44 37
3.0088 -0.179085 7.10861 86 50 46
2.80804 0.334666 7.16786 85 50 42
3.08147 0.544744 7.27043 126 92 76
2.87808 0.17158 7.11366 129 94 78
3.06226 0.43409 7.26027 44 12 8
2.66851 -0.937045 6.81129 109 68 54
2.46981 -1.84309 7.20118 140 103 85
2.54042 -1.81699 6.80606 79 35 16
2.77173 0.587068 7.23486 63 28 20
2.95241 0.561064 7.22179 44 10 5
2.79337 0.530835 6.79133 102 70 62
2.7692 0.695753 7.28763 114 77 60
2.49131 -1.65074 7.30973 213 188 177
2.51617 -1.70343 7.16999 177 146 132
2.73189 0.62129 7.49316 66 30 22
2.20007 -1.84354 7.13046 126 76 60
2.97333 -1.86493 6.88545 46 11 3
2.93341 -1.70732 6.62888 72 33 22
2.55914 -1.70508 6.99383 196 166 148
2.54813 -1.68816 7.06945 244 222 213
2.42467 -1.67998 7.18852 222 196 184
2.39397 -1.52036 6.92849 136 89 66
2.52651 -0.491974 6.83919 68 24 10
-2.82983 0.960584 7.29689 157 158 156
-2.68836 0.986199 7.1782 168 162 142
-2.84969 1.08669 7.32086 172 170 150
-2.80883 1.26275 7.35878 31 28 23
-2.37876 1.16429 7.01574 62 53 43
-2.70024 1.31334 7.33116 56 44 37
-2.22636 1.21141 7.22272 50 39 10
-1.5926 1.14139 7.7601 28 13 0
0.83688 0.85672 7.96821 106 76 79
0.940253 0.856624 7.88428 134 109 112
0.514533 0.918816 7.3328 77 54 54
0.954394 0.93333 8.09575 135 114 114
0.315961 1.01372 7.51627 68 46 44
0.456662 1.0053 7.63824 84 60 62
2.46971 0.536566 7.26616 94 53 45
0.261976 1.04633 7.26685 83 62 61
2.49626 0.551919 7.26374 90 50 43
0.292298 1.05554 7.26334 115 92 92
-1.95086 1.45925 6.59996 84 84 76
2.4954 0.566229 7.18432 68 28 18
0.481428 1.07375 7.55934 98 64 70
0.650845 1.10014 7.92404 136 114 114
-0.0681849 1.16979 7.23087 66 47 44
2.54673 0.57692 7.19487 178 140 130
0.0296084 1.13172 7.02249 66 40 44
0.34644 1.09035 7.16559 78 50 52
0.740299 1.13844 8.03141 138 114 116
2.46438 0.652731 7.42986 96 58 44
0.100623 1.15792 7.17912 64 44 46
2.43805 0.653997 7.32231 72 30 16
0.178075 1.13406 7.09349 126 104 106
2.50467 0.628342 7.21985 85 45 34
0.0524545 1.21198 7.34581 78 58 58
0.455053 1.2228 7.76403 137 116 118
2.55155 0.659478 7.23502 170 130 121
-0.0334272 1.24362 7.16194 128 104 107
0.303369 1.17998 7.23182 133 114 114
0.358761 1.25113 7.64918 68 44 46
2.5669 0.679872 7.24791 100 58 50
2.69924 0.646262 7.22971 60 23 12
0.078304 1.24064 7.16232 122 99 101
2.89769 0.610334 7.19283 55 16 6
3.40173 0.526251 7.38671 94 58 45
-0.300123 1.26473 6.6457 48 27 24
-0.361095 1.30042 6.7603 60 38 34
0.00810326 1.33089 7.3966 134 113 114
0.654765 1.28926 8.02068 133 110 112
0.223576 1.30117 7.4498 66 38 42
-1.5691 1.55963 6.29535 101 100 94
0.162902 1.33981 7.35586 136 116 118
-0.281528 1.34114 6.68829 136 114 116
-0.31365 1.33346 6.52457 68 52 49
-0.383318 1.39952 6.61697 127 109 108
-0.239934 1.42269 6.89029 76 60 60
0.39218 1.48195 8.00242 124 107 108
-0.234657 1.44204 6.91357 118 98 99
0.765626 1.17037 6.67156 134 118 118
-0.227423 1.45425 6.94572 72 53 54
0.173282 1.57741 7.95646 117 96 98
-0.828942 1.54204 6.38154 118 94 96
-1.60104 1.79963 6.68506 50 47 35
-0.216573 1.63152 7.40566 106 80 84
-0.011133 1.56453 7.29864 110 80 86
-0.195445 1.59771 7.08261 136 116 118
-0.249065 1.6519 7.28505 58 34 38
-1.28249 1.70968 6.16713 84 69 71
-0.790415 1.62458 6.26343 52 30 32
-0.596351 1.85471 7.1299 84 66 67
-0.534006 1.77399 6.7931 52 24 29
-1.06501 1.77096 6.15225 85 62 66
-0.548873 1.75017 6.60544 132 114 116
-0.279194 1.71639 6.71935 92 66 71
-0.977162 1.84717 6.39868 131 120 118
-0.584128 1.86263 6.87969 134 116 119
-0.514113 1.89412 6.97965 130 115 117
2.11615 1.45703 7.81366 162 118 104
-1.09699 1.9907 6.50576 144 132 133
-0.912428 2.14483 7.15074 93 77 78
-0.809178 1.9704 6.44245 81 68 70
-1.00841 2.09455 6.65778 80 72 73
-0.863288 2.11149 6.82349 90 83 84
2.29803 1.52909 7.68789 168 120 106
2.44833 1.56352 7.63615 72 23 18
2.70171 2.11845 6.58913 118 114 112
2.20766 -1.74441 7.10152 140 91 74
2.72316 -1.74405 6.82635 71 28 16
2.37876 -1.64689 6.87344 144 96 73
2.53776 -1.68744 7.09551 228 210 202
2.33323 -1.51533 6.87683 136 88 64
2.3809 -1.52207 6.96136 144 97 72
-2.85465 0.964783 7.3166 133 138 142
-3.05256 1.04838 7.2997 234 239 242
-2.93646 1.03308 7.2698 229 233 234
-2.82911 1.02606 7.27526 224 235 241
-2.58313 1.17013 7.23763 48 40 33
-2.5583 1.24053 7.19819 106 96 88
-2.70933 1.32257 7.3573 53 40 33
0.995787 0.81056 8.25873 100 75 76
0.635708 0.816106 7.6777 82 60 60
2.33028 0.484329 7.20336 149 104 84
2.07703 0.606329 7.50464 141 91 66
0.25557 1.02849 7.3685 88 68 68
-2.11592 1.48262 6.73499 154 153 146
2.3497 0.566496 7.25104 108 64 44
2.44969 0.583861 7.26508 170 130 115
2.53987 0.563954 7.25361 104 66 56
0.281544 1.08209 7.3015 84 61 60
0.620839 1.10968 7.9692 138 119 119
2.52297 0.58788 7.26602 175 136 126
0.792486 1.10232 7.91964 123 99 102
0.155035 1.12691 7.08467 116 100 100
0.178999 1.1492 7.14063 104 85 86
2.51419 0.645233 7.19292 122 81 64
0.428342 1.23167 7.8171 110 88 90
0.0893655 1.22972 7.28783 100 73 76
2.67629 0.654216 7.31278 77 40 28
0.0529581 1.25711 7.20956 122 99 101
0.146527 1.21652 7.10401 60 34 38
0.612759 1.22901 7.79436 131 106 110
0.626053 1.30343 8.07266 88 60 65
0.30415 1.27188 7.41286 70 48 50
-0.360896 1.30866 6.66147 132 116 112
0.149385 1.34621 7.37414 105 80 84
0.349004 1.38987 7.77599 122 94 98
-1.57188 1.58513 6.30142 99 98 94
-0.367658 1.35707 6.59495 88 74 70
-0.15653 1.38482 7.04573 83 62 64
-0.372852 1.39208 6.59445 133 118 116
0.425914 1.44777 7.91222 125 112 111
-0.369429 1.52713 7.21947 132 119 118
-0.199701 1.43733 6.91045 91 74 74
-0.349315 1.45921 6.70865 118 97 100
-0.136575 1.48468 7.1243 136 118 118
-0.778595 1.52314 6.358 80 61 60
-0.0533432 1.58666 7.3728 104 75 80
-1.63206 1.81988 6.48076 154 148 145
-0.237589 1.63487 7.25812 70 45 49
-0.757158 1.60558 6.22548 60 40 42
-0.20949 1.71348 7.37458 126 112 114
-0.658173 1.71554 6.80847 135 120 120
-0.745188 1.66212 6.37258 126 110 111
-0.513824 1.72394 6.83238 128 110 111
-0.429252 1.77008 6.9122 92 72 74
-0.550592 1.77551 6.80229 70 42 48
-0.621457 1.78434 6.68352 119 102 102
-0.39168 1.84847 7.17777 124 106 110
2.10164 1.41382 7.78205 160 115 104
-0.53014 1.9044 6.99775 127 112 114
-0.634828 2.03548 7.0544 114 108 108
-0.748055 2.04707 6.94443 100 82 84
-1.00172 2.07183 6.70857 114 96 99
-0.919974 2.03216 6.63011 130 112 116
-0.844028 2.09625 6.79799 78 70 72
2.92287 -1.89132 6.82587 53 18 8
2.53934 -1.76178 6.94639 106 64 50
2.40697 -1.76967 7.14989 194 153 128
2.34629 -1.66538 6.98427 142 94 70
2.3022 -1.52674 6.96677 143 94 72
2.40075 -1.51517 6.92237 134 87 62
-2.98054 0.990504 7.42908 136 142 146
-2.80476 1.35482 7.45187 53 40 33
0.96589 0.842259 7.81762 100 73 76
0.477562 1.00601 7.68694 134 113 114
2.341 0.571093 7.3059 86 41 24
0.220447 1.06501 7.33985 121 102 100
-2.0302 1.48718 6.66587 124 124 118
3.71968 -0.587612 1.48836 91 64 59
2.1642 0.685852 7.4436 146 97 72
0.050923 1.11305 7.04289 87 66 62
2.7016 0.61423 7.33737 94 58 46
2.50754 0.650842 7.22267 120 80 64
2.66613 0.699439 7.54618 150 113 102
0.100953 1.24228 7.18678 58 33 36
0.591598 1.23395 7.80573 132 111 112
-0.282897 1.25939 6.6462 66 46 42
-0.0190005 1.34029 7.41629 134 119 118
0.388023 1.36738 7.71106 128 102 106
-0.368462 1.38842 6.59692 120 104 104
-0.227883 1.5239 7.25782 128 111 111
-0.735652 1.47543 6.25861 108 88 87
-0.732279 1.49431 6.24361 73 54 54
-0.356944 1.60118 7.06303 134 115 117
-0.631612 1.50265 6.22006 138 118 120
-0.600085 1.6781 6.74578 133 118 119
-0.206371 1.71312 7.35659 126 114 114
-0.719924 1.64786 6.34919 131 114 114
-0.584593 1.76148 6.93699 124 109 109
-1.18877 1.80677 6.20792 160 145 146
-0.119724 1.75096 7.11598 106 98 98
-0.942136 1.82194 6.34172 132 128 125
-0.819831 1.88092 6.47567 132 118 118
2.12552 1.43163 7.75765 162 119 106
-1.07677 1.97831 6.48456 118 103 104
-0.751452 1.96621 6.71814 131 121 120
-0.576537 1.99653 6.97724 120 112 112
-0.710182 2.02301 6.90133 100 83 85
-1.02006 2.0032 6.47281 108 96 98
-1.06118 2.22308 7.07142 74 65 68
0.375845 2.5242 6.03772 114 114 114
2.92541 -1.88622 6.79768 54 20 10
2.24007 -1.81825 7.00207 124 74 58
2.96062 -1.8631 6.91274 82 46 34
2.5527 -1.75662 6.89033 111 68 53
2.40868 -1.76108 7.12798 188 148 124
2.2267 -1.67801 7.10902 124 76 57
-2.66298 1.18773 7.20391 126 124 122
-2.69696 1.32341 7.3558 58 44 36
-0.565099 1.49675 11.5105 140 118 118
0.972355 0.740467 7.76531 51 14 20
-0.395988 1.62571 10.9386 130 104 106
0.576337 0.950693 7.50748 135 115 115
0.227885 1.04441 7.40846 90 70 68
2.33563 0.577124 7.33112 106 62 45
2.42585 0.58278 7.34534 166 124 109
0.624355 1.10497 7.94547 134 115 115
2.38879 0.649463 7.37874 172 128 110
2.53342 0.603067 7.1908 86 47 34
2.47123 0.690858 7.39937 82 42 30
0.196523 1.22568 7.42961 136 116 116
0.439362 1.2286 7.79343 106 82 84
2.54878 0.683128 7.23705 82 42 28
2.79365 0.591832 7.03311 76 38 27
3.50173 0.39586 6.72722 102 68 56
0.575036 1.38843 8.35811 111 96 96
-1.65319 1.59942 6.37202 128 126 122
-0.277305 1.33479 6.69134 134 114 116
-0.21037 1.44241 7.00121 135 122 121
-0.0997088 1.5594 7.35573 129 116 116
-1.00477 1.54181 5.88315 142 136 132
-0.147932 1.68077 7.25685 128 120 118
-0.403557 1.75723 6.93193 126 113 113
0.282857 1.2549 5.52618 130 114 116
-0.359879 1.82651 7.1389 123 108 110
-0.545011 1.91448 6.99938 124 112 112
-1.05489 1.96859 6.45666 145 136 136
-0.702609 2.0228 6.92068 128 116 118
-1.13923 2.15877 6.80895 84 72 74
2.44102 1.39063 7.45361 82 32 25
2.90184 -1.89725 6.86911 52 16 8
2.25743 -1.80489 6.93266 122 71 54
2.94798 -1.87526 6.98269 74 36 24
2.55251 -1.68062 7.01275 184 162 153
-3.94829 1.31163 8.26508 236 243 244
0.936384 0.638956 7.96724 98 68 72
-0.0763014 1.08464 7.9196 44 36 16
0.983665 0.83799 7.76299 112 87 90
0.60043 0.934453 7.45142 134 114 114
0.218474 1.05743 7.41089 92 70 70
2.43819 0.546278 7.15154 85 41 26
0.024004 1.13391 7.057 63 40 42
0.0538889 1.13726 7.13065 141 124 118
0.741671 1.12944 8.05792 138 116 118
2.50095 0.630096 7.20485 172 130 114
2.53145 0.638903 7.21293 156 116 107
0.199811 1.22395 7.4241 134 115 114
0.578676 1.15279 7.52532 116 94 95
2.65804 0.677939 7.2305 72 35 24
0.156357 1.24237 7.09688 134 122 120
2.59445 0.706657 7.2569 167 128 114
-0.31434 1.29589 6.67663 64 41 38
0.261991 1.33444 7.65633 132 118 118
0.806014 1.23696 7.79439 112 96 97
2.59895 0.0329326 3.26194 138 118 120
0.694859 1.33766 7.73679 92 74 75
-0.228263 1.44277 7.01853 131 120 118
-0.340782 1.58548 7.44868 128 114 113
-0.131738 1.57194 7.37714 129 116 116
-0.222231 1.62514 7.10906 122 104 105
-1.23494 1.68478 6.11623 90 78 78
-0.654526 1.70132 6.77424 133 122 120
-0.165429 1.68775 7.27593 124 116 116
-0.674928 1.64399 6.29888 124 111 111
-0.973972 1.82958 6.36215 132 130 126
-0.459069 1.85799 6.86307 122 112 112
-1.14799 2.05867 6.86962 137 126 124
-0.991585 1.96173 6.39969 146 135 136
-0.825723 1.99915 6.79628 134 126 124
2.26875 1.43289 7.61188 154 110 94
-0.901582 2.01971 6.60512 130 112 116
-0.909257 2.12552 6.87125 84 73 76
2.84187 -1.89992 6.93521 124 86 75
2.60184 -1.77803 6.98228 70 31 24
2.88723 -1.80033 6.88036 108 70 56
2.34387 -1.65039 6.98648 142 94 70
2.42691 -1.67368 7.16616 204 174 161
-1.23755 0.968666 7.4518 56 36 12
-2.23274 1.16952 7.227 28 20 28
-2.66535 1.33764 7.3417 52 38 27
0.911221 0.666603 8.00356 88 51 56
1.47451 0.326709 5.753 106 80 68
0.942686 0.725954 8.01355 140 114 115
0.724869 0.790461 7.46988 88 59 61
2.36057 0.552739 7.18938 163 121 98
2.43363 0.574485 7.21103 137 94 78
0.350229 1.17089 7.64242 132 120 118
0.597376 1.14812 7.48055 114 94 94
-0.773973 1.48921 7.17555 136 130 121
-0.342854 1.31771 6.72437 69 46 44
-0.336037 1.36176 6.75598 113 90 93
0.141643 1.36262 7.36327 122 99 102
0.441094 1.42718 7.86558 126 113 112
0.216678 1.46133 7.54338 128 116 116
-0.251855 1.64355 7.16163 138 122 122
-0.559438 1.65709 6.65702 134 122 120
2.67284 1.06009 7.39962 130 83 67
-0.732677 1.8449 6.78981 136 124 123
-0.900977 1.78748 6.26362 138 134 130
-0.553024 1.84902 6.83681 130 112 114
-0.527251 1.89602 6.93872 122 114 114
-0.757065 1.83878 6.39832 123 110 110
-0.503384 1.96574 7.18017 102 90 92
-1.03077 2.07854 7.01992 126 120 117
-0.723838 2.0279 6.96663 136 123 125
2.25832 1.45726 7.66528 157 114 98
-0.888505 2.01345 6.57954 120 104 107
-0.951643 2.04783 6.57505 97 84 86
2.82253 -1.96094 7.02559 78 42 28
2.43813 -1.72622 6.97816 180 142 120
2.46361 -1.64722 7.02357 204 173 159
2.1118 -1.36635 7.07356 142 102 84
0.824987 0.822842 8.06069 59 21 27
1.00724 0.842104 7.72315 132 110 111
2.33451 0.683986 7.65459 152 110 96
0.196265 1.22919 7.43101 132 114 114
0.606531 1.14659 7.47264 128 110 110
-0.795698 1.50419 7.16777 142 138 129
0.357951 1.26851 7.44486 128 115 114
-0.205463 1.26031 6.5176 74 46 50
0.349664 1.46871 8.04476 127 114 114
3.44038 0.596372 7.22755 114 80 66
-0.411971 1.50961 6.80957 132 120 119
-0.018504 1.4838 7.1646 128 118 118
0.470051 1.41046 7.39859 102 86 86
-0.702588 1.45876 6.11766 144 140 134
-0.81536 1.55782 6.35326 67 38 41
0.0550191 1.55601 7.37861 130 115 115
-0.705497 1.54423 6.32052 140 124 124
-0.377819 1.6148 7.01621 129 122 120
-0.106822 1.57798 6.94471 135 123 122
-0.414504 1.82413 7.62142 126 119 118
-1.14886 1.88843 6.52684 133 130 126
-0.41579 1.83828 6.77564 125 120 120
-0.630119 1.98343 6.85938 126 115 116
-1.66894 0.861485 7.12881 92 74 33
-2.30201 1.1805 7.14636 126 104 84
1.10692 0.681724 7.8847 126 108 104
0.742493 0.986781 8.37388 136 112 114
0.22116 1.10039 7.12422 136 124 115
-0.353806 1.27669 6.57343 140 136 128
0.474555 1.29506 7.60863 130 113 114
-0.338833 1.34365 6.65427 80 52 56
0.154889 1.36088 7.35838 128 108 110
-0.943538 1.5661 6.60956 139 136 131
-0.325442 1.46555 6.70747 130 118 117
-0.737529 1.53316 6.25599 83 56 60
-0.643042 1.65619 6.72155 128 122 118
-0.240262 1.64636 7.14394 140 126 126
-0.385846 1.52454 6.00144 132 126 123
-0.547272 1.91822 7.44204 103 90 92
-0.632484 1.77805 6.60961 130 123 121
-0.634968 1.74894 6.25489 98 84 84
-0.613747 1.91993 7.00282 132 122 122
-0.920226 2.12625 7.25184 109 98 100
-1.00508 2.07107 6.61526 109 96 98
2.44134 1.48424 7.50951 97 49 38
2.85774 1.3814 7.44876 148 100 86
3.66999 -2.49769 6.98382 95 86 85
2.27737 -2.02782 6.68309 88 42 22
2.30273 -2.00356 6.7283 109 62 40
2.14004 -1.9858 6.92351 144 94 74
2.22129 -1.91287 6.92413 117 68 44
2.17375 -1.91209 6.96741 115 67 44
2.23221 -1.82549 6.97892 122 74 50
2.25291 -1.80869 6.96881 110 62 38
2.66743 -1.76851 6.85305 128 86 74
2.2241 -1.79297 7.04157 155 106 82
2.73251 -1.76826 6.84909 116 74 58
2.5594 -1.74698 6.84534 76 28 11
2.71883 -1.74753 6.87204 57 14 5
2.72667 -1.72215 6.87586 122 79 63
2.22565 -1.73672 7.02195 164 114 94
2.76091 -1.63971 6.88444 126 84 69
2.65135 -1.6234 6.8526 114 68 47
2.89132 -1.59071 6.925 85 46 26
2.2287 -1.57167 7.04861 156 106 84
2.16223 -1.57582 7.11876 162 112 93
2.17718 -1.49754 7.07263 159 109 91
2.61441 -1.45519 6.9014 148 102 82
2.13059 -1.39646 7.15637 152 104 86
2.24743 -1.35786 6.98892 148 100 83
2.13696 -1.34791 7.07241 158 111 93
2.34979 -1.31464 6.93199 154 106 90
2.43711 -1.26256 6.88538 158 114 96
2.04547 -1.22447 7.10778 156 108 93
2.14048 -1.22148 6.94858 161 114 93
1.92853 -1.1218 7.22257 160 111 96
3.0295 -1.10125 6.86618 82 46 29
2.5819 -1.02125 6.82312 154 108 88
2.62036 -0.922385 6.80161 156 112 92
2.6742 -0.797828 6.8274 52 12 0
2.52103 -0.76899 6.87718 108 70 58
2.87688 -0.77695 6.83976 55 16 10
2.87724 -0.763056 6.86262 38 4 2
2.57737 -0.712472 6.87187 56 16 5
2.77284 -0.723036 6.86877 44 8 4
2.94724 -0.728178 6.87087 112 76 66
2.95801 -0.716248 6.89969 116 81 67
1.92394 -0.667843 7.29855 162 114 94
2.06213 -0.650813 7.12897 130 78 56
2.45193 -0.598159 6.91748 145 108 96
2.33553 -0.587346 6.97254 88 46 34
1.97931 -0.567147 7.25013 162 107 88
2.68224 -0.58844 6.89122 144 104 94
2.46374 -0.555778 6.91399 156 118 113
2.71893 -0.567289 6.89588 54 14 4
2.01165 -0.519524 7.21398 168 114 94
2.95459 -0.556891 6.94811 122 87 74
2.03692 -0.504646 7.19914 136 85 62
2.44563 -0.516968 6.93937 68 30 20
1.92675 -0.473098 7.32823 160 106 88
1.9469 -0.368279 7.39394 166 114 94
2.61968 -0.378871 6.99968 63 22 10
2.53408 -0.366866 6.95288 123 82 62
2.80165 -0.375275 6.97236 122 82 68
2.49161 -0.342866 6.97395 73 33 11
2.52468 -0.307908 6.98587 115 71 52
2.59169 -0.316899 6.98068 85 42 23
2.64526 -0.314726 6.96097 86 43 24
2.15677 -0.272911 7.15139 116 68 64
2.23285 -0.273351 7.10954 64 18 4
2.55164 -0.283094 6.98076 94 52 35
2.66914 -0.29235 6.96504 96 54 34
3.04672 -0.312118 7.01379 122 88 76
2.35198 -0.277087 7.05634 62 20 12
1.93015 -0.229197 7.41619 156 105 88
2.47738 -0.254217 7.00289 152 112 100
2.10593 -0.222088 7.2297 52 4 0
2.20279 -0.228845 7.15119 155 110 96
2.74996 -0.262576 6.97838 146 106 90
2.20921 -0.212812 7.17465 62 18 5
1.88307 -0.183646 7.50143 160 110 94
2.04448 -0.18199 7.28676 105 56 41
2.20602 -0.192674 7.10699 106 61 43
2.3309 -0.211782 7.0871 169 128 110
2.62527 -0.224756 6.99047 110 66 64
2.68062 -0.226501 6.98364 107 65 60
2.0548 -0.176695 7.279 66 16 7
2.12133 -0.168188 7.2275 158 112 98
3.07967 -0.213085 7.05557 100 68 62
2.11155 -0.118193 7.24664 154 108 100
2.17276 -0.108571 7.19197 158 113 100
2.08839 -0.0920794 7.2849 130 86 74
2.10506 -0.0940598 7.27952 97 54 44
2.6421 -0.12059 7.00969 50 6 0
2.11164 -0.0620485 7.2302 155 110 100
2.18756 -0.0713217 7.20362 68 24 14
2.86519 -0.112424 7.03466 44 8 0
2.23705 -0.0624002 7.18623 74 32 20
2.5342 -0.0646687 7.0572 61 23 16
1.99353 0.00827354 7.41061 149 102 83
1.93664 0.0408095 7.50663 147 98 74
2.73016 -0.0254662 7.04223 140 101 90
1.99586 0.0399457 7.42152 84 36 19
2.15168 0.0252241 7.25561 148 104 98
2.86511 -0.0153752 7.05533 53 16 3
2.71681 0.00445293 7.05405 68 28 18
2.03074 0.0542798 7.44113 82 35 20
2.15065 0.0700325 7.25026 159 113 104
1.99973 0.088984 7.4331 91 44 30
2.01556 0.0984226 7.40502 161 114 98
2.04531 0.0979577 7.39636 62 18 12
2.33712 0.0608981 7.15893 125 82 82
2.13501 0.0963706 7.30574 62 16 6
2.56475 0.0630957 7.09318 58 16 2
2.02162 0.122546 7.42304 78 32 19
2.06136 0.12322 7.3861 60 14 8
2.74739 0.0627893 7.06988 62 24 14
-0.230375 0.440858 9.48555 159 146 138
2.04633 0.129556 7.4116 166 120 104
2.0623 0.157965 7.33868 160 116 100
2.13607 0.139124 7.34545 57 12 3
2.19404 0.140024 7.2959 124 78 66
2.17856 0.15717 7.29476 64 18 5
3.08598 0.0792928 7.14327 60 24 12
2.78658 0.105096 7.08832 52 14 6
2.14157 0.169202 7.33317 159 114 97
2.25767 0.186033 7.24883 69 24 14
2.35083 0.192854 7.22263 162 122 110
2.10273 0.266833 7.37107 167 120 107
2.36738 0.235738 7.22377 179 142 126
2.50535 0.233767 7.15618 80 45 37
2.71176 0.217473 7.11449 150 109 98
1.9092 0.313433 7.60847 126 76 54
2.11919 0.290151 7.39031 58 11 4
2.26415 0.288866 7.27182 72 28 12
2.72669 0.24908 7.13492 148 108 96
1.86751 0.367126 7.70892 148 98 78
2.10845 0.317514 7.38913 160 114 96
-0.379517 0.673216 9.41351 130 126 125
2.12236 0.339711 7.38934 54 10 5
2.14553 0.340495 7.37866 171 126 109
2.16617 0.339174 7.35959 76 32 20
2.20519 0.328009 7.34642 64 24 8
2.72014 0.279659 7.14226 94 54 38
-0.296127 0.695577 9.38204 116 110 114
2.28057 0.324825 7.24701 73 28 16
2.12904 0.361707 7.38838 68 20 6
2.28418 0.351271 7.28101 164 123 106
2.50585 0.339337 7.19757 76 42 24
-0.422195 0.749511 9.36958 108 100 98
-0.298023 0.742479 9.41005 82 69 68
2.77797 0.336878 7.16577 38 4 2
2.74111 0.350641 7.16432 50 12 8
2.34631 0.39069 7.25628 70 32 22
2.77111 0.352461 7.18426 121 85 76
2.86112 0.353764 7.17805 58 22 12
-0.408506 0.805521 9.33126 46 44 49
2.29302 0.413829 7.3056 68 28 16
2.68656 0.383803 7.17722 142 104 94
2.86165 0.366906 7.1809 71 35 24
2.70477 0.391706 7.17809 54 16 8
-0.494737 0.851819 9.35318 71 62 58
2.32056 0.438109 7.27857 68 30 16
2.83458 0.393183 7.27955 75 39 31
2.82769 0.394436 7.19168 54 18 10
0.971331 0.625147 7.95727 96 78 77
0.0660045 0.850855 9.17558 65 52 44
3.06068 0.456616 7.24569 56 22 14
-1.92532 0.866641 7.44587 94 66 29
-1.89007 0.929277 7.34028 76 58 26
2.9432 0.558446 7.22682 59 24 18
-2.83 0.937023 6.95576 97 97 97
2.80944 0.587437 7.22802 67 30 16
-2.91314 0.969065 6.96274 74 74 70
2.01194 0.705518 7.6322 127 75 50
2.9442 0.580847 7.24455 134 98 89
2.48327 0.640144 7.26658 87 49 39
2.89058 0.631938 7.24843 48 12 2
-1.61884 1.00892 7.47596 61 46 9
-1.23746 1.00319 7.64619 72 52 17
2.50927 0.692501 7.28521 88 47 36
2.62747 0.700053 7.27767 148 106 94
0.468581 0.928007 7.31656 59 37 38
0.241316 0.951457 7.07123 78 65 61
-2.43248 1.1582 6.98987 76 70 64
-2.41437 1.17385 6.95827 58 52 46
-2.41819 1.17774 6.96919 52 46 40
2.2171 1.00013 7.52565 161 109 90
1.86116 1.16979 8.05449 156 111 96
2.56202 1.01256 7.4153 120 74 55
2.96325 1.00036 7.3854 142 96 81
2.60159 1.12842 7.44577 146 99 80
2.12128 1.32752 7.70855 164 114 100
-1.7447 1.38809 6.38806 112 96 94
-1.32155 1.64673 7.69508 67 64 60
-0.27054 1.31201 6.45893 93 74 74
2.09458 1.39571 7.78215 145 96 82
2.66185 1.28837 7.4728 141 92 78
2.29776 1.51629 7.67687 171 131 116
-0.84585 1.85305 6.20418 142 126 126
-0.953048 1.97248 6.38702 160 153 152
3.59045 -2.43148 6.7646 86 77 73
2.18292 -1.99688 6.85557 110 61 39
2.88425 -1.88724 6.84443 106 70 65
2.25244 -1.80879 6.96324 114 66 42
2.7293 -1.76976 6.84217 130 88 71
2.23192 -1.73387 7.01937 164 114 94
2.76211 -1.64697 6.88024 117 74 60
2.19899 -1.51656 7.11108 154 104 86
2.18371 -1.50688 7.09084 140 90 71
2.60881 -1.45042 6.89124 144 98 78
2.61067 -1.39681 6.86528 134 87 72
2.13128 -1.38601 7.12762 150 102 84
2.13417 -1.35491 7.07602 156 109 91
2.27859 -1.32239 6.96641 152 104 87
